# .PCD v0.7 - Point Cloud Data file format
VERSION 0.7
FIELDS x y z rgb
SIZE 4 4 4 4
TYPE F F F F
COUNT 1 1 1 1
WIDTH 846
HEIGHT 1
VIEWPOINT 0 0 0 1 0 0 0
POINTS 846
DATA ascii
-0.017869525 0.14726953 0.64700001 1.2256831e-38
-0.021566669 0.15466382 0.64700001 1.2257208e-38
-0.019594857 0.15441734 0.64700001 1.2256859e-38
-0.017253336 0.1558962 0.64700001 1.2348689e-38
-0.017253336 0.15836096 0.64700001 1.2257568e-38
0.010475239 0.16575524 0.64700001 1.2256842e-38
0.0073942863 0.17068477 0.64700001 1.2165737e-38
0.0010269842 0.17273875 0.64700001 1.2441238e-38
0.0067780958 0.17191716 0.64700001 1.2166097e-38
0.0055457149 0.17684668 0.64700001 1.2074257e-38
0.0071888897 0.17643589 0.64700001 1.2165384e-38
0.01047524 0.17684668 0.64700001 1.2349414e-38
0.028960954 0.1756143 0.64700001 8.94153e-39
0.0080104768 0.17807905 0.64700001 1.2349422e-38
0.010228762 0.17881849 0.64700001 1.2073911e-38
0.0098590478 0.18054383 0.64700001 1.1795903e-38
0.02403143 0.1817762 0.64700001 8.3912372e-39
0.019718096 0.18362477 0.64700001 8.0217373e-39
0.021566669 0.18300858 0.64700001 8.3901596e-39
-0.01609524 0.10461906 0.65000004 6.45009e-39
-0.014238096 0.10461906 0.65000004 6.4515221e-39
-0.058809526 0.12566668 0.65000004 1.1888074e-38
-0.056333337 0.12752381 0.65000004 1.1888074e-38
0.021666668 0.13061905 0.65000004 5.992353e-39
-0.046738099 0.13402382 0.65000004 1.2165719e-38
-0.043333337 0.13433334 0.65000004 1.2348678e-38
-0.041476194 0.13433334 0.65000004 1.2349037e-38
-0.045738101 0.13536286 0.64900005 1.2257181e-38
-0.043333337 0.13619047 0.65000004 1.2348674e-38
-0.041476194 0.13619047 0.65000004 1.2349037e-38
0.0055714292 0.13680953 0.65000004 1.2073171e-38
0.0068095243 0.13680953 0.65000004 1.2073171e-38
-0.043333337 0.13866669 0.65000004 1.2349042e-38
-0.041135717 0.13948715 0.64950007 1.2348689e-38
-0.025071431 0.13959526 0.65000004 1.2256854e-38
-0.022285715 0.13990477 0.65000004 1.2165366e-38
-0.019809525 0.14052382 0.65000004 1.2349037e-38
-0.017952383 0.14052382 0.65000004 1.2349041e-38
-0.0092857145 0.13928573 0.65000004 1.2349402e-38
0.001857143 0.13804764 0.65000004 1.216501e-38
0.0055714292 0.13804764 0.65000004 1.207317e-38
0.0071190484 0.13959526 0.65000004 1.2072811e-38
0.028476194 0.13804764 0.65000004 8.0217275e-39
0.030952383 0.13959524 0.65000004 8.0213673e-39
0.034666669 0.14052382 0.65000004 7.9291829e-39
-0.036523812 0.14300001 0.65000004 1.2349405e-38
-0.035285715 0.14300001 0.65000004 1.2533076e-38
-0.02414286 0.14176191 0.65000004 1.2349045e-38
-0.022285715 0.14238095 0.65000004 1.2257218e-38
-0.019809525 0.14238095 0.65000004 1.2256854e-38
-0.017280001 0.14317715 0.648 1.2165017e-38
0.0068095243 0.14238095 0.65000004 1.2256486e-38
0.035285715 0.14176191 0.65000004 7.9291815e-39
-0.02414286 0.1467143 0.65000004 1.2349038e-38
-0.02239619 0.14538592 0.64960009 1.2256845e-38
-0.019768888 0.14517651 0.64866668 1.2256845e-38
-0.016670205 0.14544463 0.64828575 1.2073173e-38
-0.014194286 0.14626287 0.648 1.2165381e-38
-0.0043333336 0.14609525 0.65000004 1.2256503e-38
-0.00061904767 0.14547621 0.65000004 1.2256488e-38
0.0012380953 0.14609526 0.65000004 1.2164296e-38
0.0043333336 0.14609526 0.65000004 1.2164298e-38
0.0074285716 0.14547621 0.65000004 1.2164303e-38
0.01052381 0.1467143 0.65000004 1.2163938e-38
0.019190477 0.1467143 0.65000004 1.2072095e-38
0.040238097 0.1467143 0.65000004 7.9284626e-39
-0.024607621 0.14925295 0.64920008 1.2348679e-38
-0.022228889 0.1488073 0.64833337 1.2440516e-38
-0.019748572 0.14873146 0.648 1.225684e-38
-0.016508572 0.14888573 0.648 1.2256837e-38
-0.013577144 0.14873143 0.648 1.2165019e-38
-0.010718096 0.14883047 0.64933342 1.2257207e-38
-0.0074285725 0.14857143 0.65000004 1.2256486e-38
-0.0043333336 0.14795239 0.65000004 1.2348321e-38
-0.0010317462 0.14877778 0.65000004 1.2348676e-38
0.0012380953 0.14857143 0.65000004 1.2164654e-38
0.0043333336 0.14857143 0.65000004 1.2164299e-38
0.0072222226 0.14877778 0.65000004 1.2164309e-38
0.01052381 0.14888096 0.65000004 1.1980625e-38
0.016714286 0.14919049 0.65000004 1.2347246e-38
0.019809525 0.14857143 0.65000004 1.197989e-38
0.022492064 0.14836508 0.65000004 1.1888057e-38
0.024968257 0.1483651 0.65000004 1.1887714e-38
0.031950478 0.14944889 0.64933342 1.142854e-38
0.034389209 0.1497073 0.64866668 1.0414806e-38
0.037662316 0.14914913 0.64828575 7.9284598e-39
0.04042381 0.14870064 0.64966673 7.9284626e-39
0.04271429 0.14857143 0.65000004 7.9291773e-39
-0.022011429 0.15161143 0.648 1.2349039e-38
-0.019748572 0.15181714 0.648 1.2348681e-38
-0.016662858 0.15181714 0.648 1.2256486e-38
-0.013577144 0.15181714 0.648 1.2348685e-38
-0.010352382 0.15158668 0.64900005 1.2348683e-38
-0.0074209534 0.15150984 0.64933342 1.2256484e-38
-0.0049523814 0.15290478 0.65000004 1.2256481e-38
-0.00061904767 0.15290478 0.65000004 1.2256475e-38
0.00061904767 0.15290478 0.65000004 1.2256845e-38
0.0055714292 0.15166669 0.65000004 1.1980255e-38
0.007428573 0.15166669 0.65000004 1.2072462e-38
0.010523811 0.15166667 0.65000004 1.2072102e-38
0.013495239 0.15166667 0.65000004 1.2072109e-38
0.017068028 0.15184353 0.65000004 1.2072097e-38
0.019809524 0.15166667 0.65000004 1.2072095e-38
0.022285715 0.15166666 0.65000004 1.1979908e-38
0.025380954 0.15202041 0.65000004 1.1888064e-38
0.028476194 0.15290478 0.65000004 1.1612563e-38
0.03137929 0.15164596 0.64925003 1.1152698e-38
0.034560002 0.15181714 0.648 8.9393635e-39
0.037645716 0.15181714 0.648 8.1121322e-39
0.040905904 0.15163276 0.64880002 8.1124938e-39
0.04320953 0.15141904 0.65000004 8.1128539e-39
-0.016662858 0.15428573 0.648 1.2256495e-38
-0.013577144 0.15428573 0.648 1.2256492e-38
-0.01049143 0.15428573 0.648 1.2256844e-38
-0.0074057151 0.15428573 0.648 1.2256831e-38
-0.0046385718 0.15495192 0.64950007 1.2256477e-38
-0.0012380953 0.15538096 0.65000004 1.2256844e-38
0.0055714292 0.15476191 0.65000004 1.2164645e-38
0.007428572 0.15476191 0.65000004 1.2256129e-38
0.010523811 0.15476191 0.65000004 1.2072469e-38
0.013619049 0.15476191 0.65000004 1.2072106e-38
0.016714288 0.15476191 0.65000004 1.1980264e-38
0.019794762 0.15464239 0.64950007 1.198062e-38
0.022079365 0.15496826 0.65000004 1.1980269e-38
0.025380954 0.15476191 0.65000004 1.1888426e-38
0.027857145 0.15538096 0.65000004 1.1705116e-38
0.031537782 0.15460318 0.64933342 1.0321892e-38
0.034560002 0.15428573 0.648 7.9281011e-39
0.037645716 0.15428573 0.648 8.1124938e-39
0.040795241 0.15452382 0.64900005 8.2057642e-39
0.043126989 0.15496826 0.65000004 8.4816294e-39
-0.016169144 0.15737143 0.648 1.2257208e-38
-0.013577144 0.15737143 0.648 1.2165373e-38
-0.01049143 0.15737142 0.648 1.2348323e-38
-0.0074057155 0.15737142 0.648 1.2256498e-38
-0.0047403178 0.15748827 0.64933342 1.2165367e-38
-0.0010311111 0.15810667 0.64933336 1.2257191e-38
0.0012380953 0.15785715 0.65000004 1.2349032e-38
0.0046827211 0.1577173 0.64942867 1.2256858e-38
0.0074174604 0.15761302 0.64900005 1.2256486e-38
0.01049143 0.15737142 0.648 1.207282e-38
0.013577144 0.15737142 0.648 1.2072811e-38
0.016823096 0.15727787 0.64824998 1.2256119e-38
0.019748572 0.15737145 0.648 1.2072095e-38
0.022135239 0.15741448 0.64920008 1.2072106e-38
0.025690477 0.15754762 0.65000004 1.1980632e-38
0.031554606 0.15715779 0.64966673 8.3890652e-39
0.03464048 0.15711764 0.64950001 8.0202953e-39
0.03705667 0.15687573 0.64850003 8.1128539e-39
0.040148575 0.15715702 0.64857143 8.2979626e-39
0.042582858 0.15675429 0.648 8.3898037e-39
-0.013371429 0.16025144 0.648 1.2166089e-38
-0.01049143 0.16045715 0.648 1.2348678e-38
-0.0074057151 0.16045715 0.648 1.2256486e-38
-0.0041685719 0.16011667 0.64849997 1.2073527e-38
-0.001361143 0.16038287 0.64920008 1.2348675e-38
0.0012355556 0.16000317 0.64866668 1.2256838e-38
0.0041450346 0.16026258 0.64828575 1.2165004e-38
0.0074057151 0.16045716 0.648 1.2256849e-38
0.01049143 0.16045715 0.648 1.207318e-38
0.013577144 0.16045715 0.648 1.2165012e-38
0.016493334 0.1602626 0.64828575 1.2256481e-38
0.019778095 0.16070476 0.64900005 1.2072817e-38
0.022409525 0.16058096 0.65000004 1.2164664e-38
0.025380954 0.16017859 0.65000004 1.1979567e-38
0.028476192 0.16033335 0.65000004 9.3088523e-39
0.031571433 0.16033335 0.65000004 8.113207e-39
0.034666669 0.16033334 0.65000004 8.0217331e-39
0.037142862 0.16033334 0.65000004 8.2976025e-39
0.039445713 0.16038287 0.64920002 8.3901568e-39
-0.010244573 0.16280231 0.648 1.2349044e-38
-0.0072822869 0.16329601 0.648 1.2165371e-38
-0.0043199998 0.16354287 0.648 1.2165011e-38
-0.0012342858 0.16354287 0.648 1.2073187e-38
0.0012342858 0.16354287 0.648 1.2165384e-38
0.0043200003 0.16354287 0.648 1.2165368e-38
0.0074057155 0.16354287 0.648 1.2256858e-38
0.01049143 0.16354288 0.648 1.2073536e-38
0.013577144 0.16354287 0.648 1.2073529e-38
0.01668 0.16370983 0.64866668 1.2165368e-38
0.019809525 0.16342857 0.65000004 1.1980983e-38
0.021666668 0.16342857 0.65000004 1.1888796e-38
0.025560001 0.1636724 0.64933342 9.4921576e-39
0.028318096 0.16359735 0.64920008 8.1135658e-39
0.031571429 0.16342856 0.65000004 8.2054083e-39
0.034631111 0.16387811 0.64933342 8.2983242e-39
0.036805239 0.16361097 0.64950007 8.3901568e-39
0.039000001 0.16280954 0.65000004 8.5738278e-39
-0.0092857145 0.16528572 0.65000004 1.2257558e-38
-0.0080476198 0.16528572 0.65000004 1.2257207e-38
-0.004073143 0.16650516 0.648 1.2256841e-38
-0.0012342858 0.16662858 0.648 1.2256844e-38
0.0012342858 0.16662858 0.648 1.2165367e-38
0.0043200008 0.16662858 0.648 1.2073533e-38
0.0074057151 0.16662858 0.648 1.2165018e-38
0.010491429 0.16675201 0.648 1.2256842e-38
0.013577144 0.16662858 0.648 1.2256842e-38
0.016662858 0.16662858 0.648 1.2165012e-38
0.019779366 0.16626637 0.64900005 1.1889507e-38
0.022274604 0.16643779 0.64966673 1.0506628e-38
0.025226193 0.16667858 0.65000004 8.0213715e-39
0.028600002 0.16677144 0.65000004 8.5738278e-39
0.031560212 0.16646646 0.64977783 8.3905212e-39
0.034560002 0.16662858 0.648 8.3905184e-39
-0.0030857145 0.16848001 0.648 1.2257204e-38
-0.00092571432 0.16940573 0.648 1.2257205e-38
0.0012342858 0.16971432 0.648 1.22572e-38
0.0043199998 0.1697143 0.648 1.2165723e-38
0.0074057146 0.16909716 0.648 1.2165017e-38
0.01049143 0.1697143 0.648 1.2257214e-38
0.013577144 0.16971429 0.648 1.2348695e-38
0.016662858 0.1697143 0.648 1.2073177e-38
0.019748572 0.16971429 0.648 1.0138222e-38
0.022217145 0.16971432 0.648 7.5596731e-39
0.025337992 0.16994585 0.64888889 7.6529561e-39
0.028446987 0.17006223 0.64933336 8.1139357e-39
0.031495452 0.16982986 0.64844447 8.5741894e-39
0.03394286 0.16848001 0.648 8.482714e-39
0.0018514286 0.17218287 0.648 1.2532717e-38
0.0043200003 0.1728 0.648 1.2165375e-38
0.0076114293 0.17300572 0.648 1.2165744e-38
0.01049143 0.1728 0.648 1.2349048e-38
0.013577144 0.17280002 0.648 1.2257574e-38
0.016662858 0.1728 0.648 1.1427488e-38
0.019748572 0.1728 0.648 8.0213687e-39
0.022217143 0.17280002 0.648 7.6522331e-39
0.025302859 0.1728 0.648 7.6529547e-39
0.028388573 0.1728 0.648 8.1142916e-39
0.030857146 0.1728 0.648 8.4823553e-39
0.0045668576 0.17514516 0.648 1.2073897e-38
0.0076114293 0.17506288 0.648 1.2165392e-38
0.01049143 0.17526858 0.648 1.2165026e-38
0.013577144 0.17526859 0.648 1.2257235e-38
0.016662858 0.17526859 0.648 9.1251743e-39
0.019748572 0.17526858 0.648 7.8355467e-39
0.022217143 0.17526858 0.648 7.6525848e-39
0.025328891 0.17544889 0.64866668 7.8377005e-39
0.028182859 0.17506288 0.648 8.4823511e-39
0.030857146 0.17465144 0.648 8.5745495e-39
0.011725715 0.17835429 0.648 1.2716052e-38
0.013577144 0.17835431 0.648 9.587572e-39
0.016662858 0.17835428 0.648 8.0199338e-39
0.019748572 0.17835428 0.648 7.7444259e-39
0.022217145 0.17835431 0.648 7.8369831e-39
0.025302859 0.17800164 0.64800006 8.2061243e-39
0.028182859 0.17753144 0.648 8.6660221e-39
0.011725715 0.18144001 0.648 9.032264e-39
0.013577144 0.18144001 0.648 8.2032503e-39
0.016662858 0.18144001 0.648 7.7444287e-39
0.019748572 0.18144001 0.648 7.7447888e-39
0.022217143 0.18144001 0.648 8.1139329e-39
0.024504764 0.18059619 0.64866668 8.2983228e-39
0.016950857 0.18423924 0.64960009 7.5611164e-39
-0.032546353 0.088517785 0.65300006 6.176024e-39
-0.032339051 0.090176195 0.65300006 6.2678553e-39
-0.034204762 0.095151432 0.65300006 1.1242351e-38
-0.032339051 0.094529524 0.65300006 8.8417379e-39
-0.025083492 0.094736837 0.65300006 6.2682168e-39
-0.023010477 0.095151432 0.65300006 6.0849144e-39
-0.025498098 0.097794533 0.65300006 6.6344742e-39
-0.022377461 0.097588897 0.65266675 6.0841843e-39
-0.020501906 0.097538739 0.65233332 6.268221e-39
-0.034204762 0.10137048 0.65300006 1.1520014e-38
-0.025498098 0.10074858 0.65300006 8.570525e-39
-0.022371907 0.10067144 0.65250003 6.6337525e-39
-0.019863097 0.10055549 0.65175003 6.1763757e-39
-0.034204762 0.1032362 0.65300006 1.1520012e-38
-0.032339048 0.1032362 0.65300006 1.1520365e-38
-0.025485082 0.10380445 0.65266663 1.1611833e-38
-0.022366034 0.10375175 0.65233332 9.7672507e-39
-0.019855715 0.10361952 0.65149999 8.1056246e-39
-0.017980002 0.10416 0.65100002 5.4424064e-39
-0.01302 0.10478 0.65100002 6.0845444e-39
-0.011780001 0.10478 0.65100002 6.1760268e-39
-0.080225721 0.10634572 0.65300006 1.1243418e-38
-0.064056195 0.10510191 0.65300006 1.1426727e-38
-0.061568577 0.10510191 0.65300006 1.1426734e-38
-0.058334671 0.10609696 0.65300006 1.1426375e-38
-0.056282386 0.10603477 0.65300006 1.1334543e-38
-0.042911433 0.10758953 0.65300006 1.1518924e-38
-0.040579289 0.10650121 0.65300006 1.1519293e-38
-0.037314288 0.10634572 0.65300006 1.161185e-38
-0.03482667 0.10634574 0.65300006 1.1612206e-38
-0.03171714 0.10634572 0.65300006 1.1704043e-38
-0.028732002 0.10659448 0.65300006 1.1796243e-38
-0.025459051 0.10680381 0.65200001 1.1888786e-38
-0.022354288 0.10680382 0.65200001 1.1796931e-38
-0.019497905 0.10692801 0.65200001 1.1518565e-38
-0.016501907 0.1065819 0.65139997 7.4645656e-39
-0.013650477 0.10672238 0.65149999 6.4511605e-39
-0.01079162 0.10679696 0.6512 6.1760212e-39
-0.0080600008 0.10726 0.65100002 5.809761e-39
-0.076079689 0.10966254 0.65300006 1.1335259e-38
-0.064056195 0.10945524 0.65300006 1.1426731e-38
-0.061983179 0.10924795 0.65300006 1.1518218e-38
-0.05825175 0.10924795 0.65300006 1.1427093e-38
-0.056178734 0.10924795 0.65300006 1.1427087e-38
-0.045399051 0.11007715 0.65300006 1.1702953e-38
-0.043533336 0.10945525 0.65300006 1.1702587e-38
-0.040423814 0.10945525 0.65300006 1.1794795e-38
-0.037314288 0.10945524 0.65300006 1.1795162e-38
-0.034826666 0.10945524 0.65300006 1.1887362e-38
-0.031717148 0.10945525 0.65300006 1.1888077e-38
-0.028607622 0.10945525 0.65300006 1.1888438e-38
-0.025459049 0.10928762 0.65200001 1.1980271e-38
-0.022354288 0.10928763 0.65200001 1.188878e-38
-0.019249527 0.10928762 0.65200001 1.1981322e-38
-0.016144764 0.10928763 0.65200001 1.0965046e-38
-0.013660952 0.10928763 0.65200001 7.7404308e-39
-0.010556191 0.10928763 0.65200001 6.0830997e-39
-0.0074488102 0.10924548 0.65175003 5.9927117e-39
-0.0043400005 0.11098 0.65100002 6.1763645e-39
-0.064678103 0.11132096 0.65300006 1.1334533e-38
-0.061568577 0.11132096 0.65300006 1.1427093e-38
-0.058459051 0.11194286 0.65300006 1.1519297e-38
-0.055349529 0.11256477 0.65300006 1.1519293e-38
-0.052240003 0.11318667 0.65300006 1.1519291e-38
-0.049545083 0.11339397 0.65300006 1.1611483e-38
-0.04646517 0.11292014 0.65300006 1.1703678e-38
-0.043533336 0.11256477 0.65300006 1.1795513e-38
-0.040423814 0.11256477 0.65300006 1.1795874e-38
-0.037314288 0.11256477 0.65300006 1.1979546e-38
-0.03482667 0.11256477 0.65300006 1.1887715e-38
-0.031872623 0.11256477 0.65300006 1.1979909e-38
-0.02860762 0.11256477 0.65300006 1.1980272e-38
-0.025459051 0.11239239 0.65200001 1.198063e-38
-0.022354284 0.1123924 0.65200001 1.2163573e-38
-0.019249525 0.11239239 0.65200001 1.2163931e-38
-0.016144762 0.1123924 0.65200001 1.2072451e-38
-0.013660952 0.1123924 0.65200001 1.1703657e-38
-0.010556192 0.11239239 0.65200001 9.0293409e-39
-0.0074514295 0.11239239 0.65200001 6.26857e-39
-0.0045240819 0.11274721 0.65200001 5.9930607e-39
-0.0018628573 0.1136343 0.65200001 6.268214e-39
-0.061568577 0.11629619 0.65300006 1.1519636e-38
-0.057837147 0.11629619 0.65300006 1.1519649e-38
-0.055038575 0.11598524 0.65300006 1.1611481e-38
-0.052240003 0.11567429 0.65300006 1.1519644e-38
-0.049752384 0.11567429 0.65300006 1.1611494e-38
-0.046642859 0.11567429 0.65300006 1.1795518e-38
-0.043533336 0.11567429 0.65300006 1.1887707e-38
-0.040403176 0.11561555 0.65266675 1.2071381e-38
-0.037314288 0.11567429 0.65300006 1.1980258e-38
-0.034826666 0.11567429 0.65300006 1.1796952e-38
-0.031965904 0.11579867 0.65300006 1.2072818e-38
-0.028400319 0.11588159 0.65300006 1.2072119e-38
-0.025459049 0.11549715 0.65200001 1.1980628e-38
-0.022354288 0.11549715 0.65200001 1.2164292e-38
-0.019249525 0.11549715 0.65200001 1.2164292e-38
-0.016144764 0.11549715 0.65200001 1.2072458e-38
-0.013660953 0.11549715 0.65200001 1.2165003e-38
-0.010556191 0.11549715 0.65200001 1.1980616e-38
-0.007451429 0.11549715 0.65200001 1.0317887e-38
-0.0043466673 0.11549715 0.65200001 6.8206451e-39
-0.0012419048 0.11549715 0.65200001 6.176017e-39
0.0012419048 0.1161181 0.65200001 6.0848934e-39
0.0031047622 0.1161181 0.65200001 6.268221e-39
-0.069031432 0.11754001 0.65300006 1.133562e-38
-0.067165717 0.11816192 0.65300006 1.1427446e-38
-0.064645074 0.11872255 0.65266675 1.1427436e-38
-0.061732523 0.11840218 0.65285718 1.1519642e-38
-0.058459051 0.11816192 0.65300006 1.1519657e-38
-0.055349529 0.11816192 0.65300006 1.1520005e-38
-0.052239999 0.11816192 0.65300006 1.1611835e-38
-0.049752384 0.11816191 0.65300006 1.1886988e-38
-0.046642859 0.11816191 0.65300006 1.1888065e-38
-0.043533336 0.11816191 0.65300006 1.1980255e-38
-0.040220141 0.11835022 0.6525715 1.2163575e-38
-0.03741543 0.11846192 0.65259999 1.2072464e-38
-0.034782067 0.11863191 0.65216666 1.207246e-38
-0.031873472 0.11835022 0.6525715 1.2072464e-38
-0.028607622 0.11816192 0.65300006 1.2164295e-38
-0.025459051 0.11860192 0.65200001 1.2164278e-38
-0.022348732 0.11857127 0.65183336 1.2164644e-38
-0.019397145 0.11840072 0.65174997 1.2164659e-38
-0.016393062 0.11864885 0.65128571 1.1980625e-38
-0.013650318 0.11851033 0.65149999 1.207246e-38
-0.010550795 0.11854064 0.65166664 1.2073169e-38
-0.0074476204 0.11854064 0.6516667 1.2256465e-38
-0.0043457141 0.1185815 0.65188885 1.0597695e-38
-0.0012419048 0.11860191 0.65200001 7.5560381e-39
0.0012417461 0.11857127 0.6518333 6.4507976e-39
0.0041930955 0.11880238 0.65224999 6.1760212e-39
-0.063860007 0.12090001 0.65100002 1.152e-38
-0.061341912 0.12128643 0.65224999 1.151965e-38
-0.058443975 0.12124016 0.6528334 1.1704047e-38
-0.055349529 0.12127144 0.65300006 1.1703667e-38
-0.052226827 0.12124047 0.6528334 1.1704026e-38
-0.049752384 0.12127144 0.65300006 1.1704394e-38
-0.046642859 0.12127144 0.65300006 1.1888064e-38
-0.04365772 0.1215202 0.65300006 1.1979891e-38
-0.040571786 0.12140371 0.65287507 1.2163219e-38
-0.037155431 0.12140839 0.65240002 1.2072464e-38
-0.0348 0.12180049 0.65250003 1.2163931e-38
-0.03153155 0.12131035 0.65237498 1.2164305e-38
-0.028578414 0.12114698 0.65233332 1.2072814e-38
-0.025420001 0.12152001 0.65100002 1.2347963e-38
-0.022320002 0.12152 0.65100002 1.2256486e-38
-0.019840002 0.12152 0.65100002 1.2256491e-38
-0.016740002 0.12152001 0.65100002 1.2164298e-38
-0.01364 0.12152001 0.65100002 1.2164657e-38
-0.010540001 0.12152001 0.65100002 1.2165021e-38
-0.0074400008 0.12152001 0.65100002 1.2073173e-38
-0.0043419055 0.12158255 0.65133333 1.2073878e-38
-0.0012409524 0.12161382 0.65149999 1.1428155e-38
0.0012416667 0.12166025 0.65175003 9.3970486e-39
0.0043452382 0.12167573 0.65183336 6.1752967e-39
0.0068200002 0.12152001 0.65100002 6.4508088e-39
-0.060553338 0.12379334 0.65100002 1.1611846e-38
-0.058324289 0.12409525 0.65149999 1.1979538e-38
-0.055320639 0.12431747 0.65266669 1.1887347e-38
-0.052240003 0.12438096 0.65300006 1.188807e-38
-0.049752384 0.12438096 0.65300006 1.1796603e-38
-0.046642859 0.12438095 0.65300006 1.1888433e-38
-0.04353334 0.12438096 0.65300006 1.1980267e-38
-0.04042381 0.12438095 0.65300006 1.2163939e-38
-0.037314288 0.12438096 0.65300006 1.2256131e-38
-0.034826666 0.12438096 0.65300006 1.2256492e-38
-0.031685397 0.12425397 0.65233332 1.2256492e-38
-0.028563811 0.12419049 0.65200001 1.2348678e-38
-0.025420001 0.12462 0.65100002 1.2256489e-38
-0.022320002 0.12462 0.65100002 1.2256852e-38
-0.019840002 0.12462001 0.65100002 1.2257211e-38
-0.016740002 0.12462 0.65100002 1.2256851e-38
-0.01364 0.12462 0.65100002 1.2256489e-38
-0.010540001 0.12462001 0.65100002 1.2348685e-38
-0.0074400008 0.12462001 0.65100002 1.2256482e-38
-0.0045228573 0.12442899 0.65185708 1.2165015e-38
-0.0011175239 0.12452439 0.65179998 1.2165363e-38
0.0012419048 0.12419049 0.65200001 1.1612203e-38
0.0043466673 0.12419049 0.65200001 9.4888827e-39
0.0074400008 0.12462 0.65100002 6.7277334e-39
0.010362858 0.1249743 0.65100002 6.4508032e-39
-0.057748575 0.12605335 0.65200001 1.2071027e-38
-0.055057466 0.12688065 0.65200001 1.1888071e-38
-0.052414291 0.12744449 0.65185708 1.1980257e-38
-0.049739528 0.12745762 0.6528334 1.1979905e-38
-0.046642859 0.12749049 0.65300006 1.198062e-38
-0.043511111 0.12742478 0.65266669 1.207246e-38
-0.040409844 0.12744668 0.65277779 1.2164292e-38
-0.037314288 0.12749048 0.65300006 1.2348325e-38
-0.03482667 0.12749048 0.65300006 1.2256496e-38
-0.031685397 0.12736033 0.65233332 1.2165008e-38
-0.028549207 0.12722953 0.65166664 1.216537e-38
-0.025420001 0.12772001 0.65100002 1.2348692e-38
-0.022320002 0.12772 0.65100002 1.2348702e-38
-0.019840002 0.12772 0.65100002 1.2349049e-38
-0.016740002 0.12772001 0.65100002 1.2256856e-38
-0.01364 0.12772 0.65100002 1.2256482e-38
-0.010540001 0.12772001 0.65100002 1.2256859e-38
-0.0074400008 0.12772 0.65100002 1.2165018e-38
-0.0041878573 0.12735215 0.65149999 1.2165007e-38
-0.0013651429 0.12742572 0.65139997 1.2072821e-38
0.0012419048 0.12729526 0.65200001 1.2073188e-38
0.0043466669 0.12729526 0.65200001 1.1704741e-38
0.007451429 0.12791619 0.65200001 1.0964677e-38
0.010553811 0.12788366 0.6518333 7.4627705e-39
0.013536762 0.12754361 0.65200001 6.3589635e-39
0.016144764 0.12853715 0.65200001 6.1756541e-39
0.019249525 0.12853715 0.65200001 6.1756653e-39
-0.051539052 0.12977906 0.65200001 1.2072814e-38
-0.049494922 0.13025938 0.65233332 1.207281e-38
-0.046595559 0.13046636 0.65233338 1.2164654e-38
-0.043466672 0.1304 0.65200001 1.2256133e-38
-0.040382225 0.13046636 0.65233338 1.2256499e-38
-0.037314288 0.13060002 0.65300006 1.2165015e-38
-0.034813575 0.13054977 0.65275007 1.225721e-38
-0.031668574 0.1304 0.65200001 1.2165737e-38
-0.028563811 0.1304 0.65200001 1.2257563e-38
-0.025420001 0.13020001 0.65100002 1.2439814e-38
-0.022320002 0.13020001 0.65100002 1.2256506e-38
-0.019840002 0.13020001 0.65100002 1.2164662e-38
-0.016752223 0.13030018 0.65149999 1.2257212e-38
-0.013655476 0.13035025 0.65174997 1.2348682e-38
-0.010553493 0.13036683 0.65183336 1.2256495e-38
-0.0074400008 0.13020001 0.65100002 1.2072822e-38
-0.0043411115 0.13023348 0.65116668 1.2256485e-38
-0.0012411905 0.13035025 0.65175003 1.2164657e-38
0.0012419048 0.1304 0.65200001 1.2072471e-38
0.0043452387 0.13036683 0.65183336 1.1980979e-38
0.007451429 0.1304 0.65200001 1.1981348e-38
0.010556191 0.13040002 0.65200001 1.0413312e-38
0.013660953 0.1304 0.65200001 7.4613328e-39
0.016144764 0.1304 0.65200001 6.1752953e-39
0.018994858 0.13048401 0.65180004 6.1756569e-39
-0.046294861 0.13267772 0.6516 1.2165008e-38
-0.043433338 0.13278145 0.65149999 1.2256488e-38
-0.04019893 0.1333237 0.65187502 1.2348686e-38
-0.037295241 0.13364065 0.65266675 1.2256848e-38
-0.034800161 0.13360651 0.65250003 1.2165017e-38
-0.031663392 0.1334818 0.65188885 1.2257558e-38
-0.028548891 0.1334362 0.65166664 1.2349048e-38
-0.025420001 0.13330001 0.65100002 1.2348696e-38
-0.022320002 0.13330001 0.65100002 1.2256861e-38
-0.019840002 0.13330001 0.65100002 1.2348328e-38
-0.016753651 0.13341355 0.65155554 1.2348318e-38
-0.013660952 0.13350476 0.65200001 1.2256845e-38
-0.010547832 0.1333908 0.65144444 1.234796e-38
-0.0074400008 0.13330001 0.65100002 1.2256135e-38
-0.0043405294 0.13332298 0.65111113 1.2256482e-38
-0.0012419048 0.13350476 0.65200001 1.2164654e-38
0.0012419048 0.13350476 0.65200001 1.2164301e-38
0.0043447623 0.13345906 0.65177774 1.2072813e-38
0.0074458742 0.13340177 0.65149999 1.198062e-38
0.01055619 0.13350478 0.65200001 1.2256109e-38
0.013660952 0.13350476 0.65200001 1.1334532e-38
0.016144764 0.13350476 0.65200001 9.0289864e-39
0.019249525 0.13350478 0.65200001 6.6348245e-39
0.022342859 0.13343714 0.6516667 6.267135e-39
0.025187243 0.13412668 0.65139997 6.4529822e-39
-0.039710004 0.13650477 0.65149999 1.2348689e-38
-0.037257142 0.13660954 0.65200001 1.2256851e-38
-0.034773335 0.13660952 0.65200001 1.2165018e-38
-0.031668574 0.13660954 0.65200001 1.2257574e-38
-0.028552622 0.1365574 0.65174997 1.2165018e-38
-0.025420001 0.1364 0.65100002 1.2349046e-38
-0.022320002 0.1364 0.65100002 1.2349032e-38
-0.019840002 0.13640001 0.65100002 1.22572e-38
-0.016747938 0.13646984 0.65133333 1.2165366e-38
-0.013660952 0.13660952 0.65200001 1.216538e-38
-0.01054873 0.13650493 0.65149999 1.2164664e-38
-0.0074400008 0.13640001 0.65100002 1.2256493e-38
-0.0043400005 0.1364 0.65100002 1.2256498e-38
-0.0012416667 0.13655692 0.65175003 1.2439804e-38
0.0012400001 0.13640001 0.65100002 1.2256138e-38
0.0040920004 0.13627601 0.65100002 1.2072817e-38
0.0076466673 0.13619335 0.65100002 1.2072813e-38
0.010551113 0.13653938 0.65166664 1.207245e-38
0.013660952 0.13660954 0.65200001 1.2072446e-38
0.016144764 0.13660952 0.65200001 1.1889122e-38
0.019249527 0.13660954 0.65200001 1.0043831e-38
0.022354288 0.13660954 0.65200001 6.8167075e-39
0.025445715 0.13653938 0.65166664 7.557878e-39
0.027900001 0.13702001 0.65100002 8.0213687e-39
-0.039580006 0.13933735 0.65139997 1.2440523e-38
-0.037238095 0.13964224 0.6516667 1.2440166e-38
-0.034755558 0.13964222 0.65166664 1.2532359e-38
-0.03166857 0.1397143 0.65200001 1.225721e-38
-0.028534604 0.13957079 0.65133333 1.2257211e-38
-0.025668001 0.13925202 0.65100002 1.2256855e-38
-0.022320002 0.13826001 0.65100002 1.225719e-38
-0.019840002 0.13888001 0.65100002 1.2348676e-38
-0.016587978 0.13937154 0.65112501 1.2257207e-38
-0.01364 0.13950001 0.65100002 1.2165373e-38
-0.010697262 0.13952656 0.65112501 1.2349041e-38
-0.0074400008 0.13950002 0.65100002 1.2165011e-38
-0.0043400005 0.13950001 0.65100002 1.2165014e-38
-0.0012400001 0.13950002 0.65100002 1.2256484e-38
0.0011160001 0.13974801 0.65100002 1.2072818e-38
0.0041850004 0.13965501 0.65100002 1.2072811e-38
0.0080600008 0.13888001 0.65100002 1.1981336e-38
0.010549207 0.13961864 0.65155554 1.1980976e-38
0.013653968 0.13964222 0.65166664 1.1980617e-38
0.016144764 0.1397143 0.65200001 1.1888775e-38
0.019249525 0.1397143 0.65200001 1.1796587e-38
0.022354284 0.1397143 0.65200001 1.0597715e-38
0.025428254 0.13954741 0.65122223 8.6641822e-39
0.028520001 0.14012 0.65100002 8.2053914e-39
0.031620003 0.14012 0.65100002 8.1128441e-39
-0.037200004 0.14198001 0.65100002 1.225757e-38
-0.034548257 0.14253937 0.65166664 1.2441241e-38
-0.031668574 0.14281905 0.65200001 1.2349395e-38
-0.028563812 0.14281905 0.65200001 1.2349393e-38
-0.025668001 0.14272401 0.65100002 1.2349039e-38
-0.016740002 0.14247599 0.65100002 1.2165019e-38
-0.01364 0.1426 0.65100002 1.2256859e-38
-0.010540001 0.1426 0.65100002 1.2348678e-38
-0.0074400008 0.1426 0.65100002 1.2256479e-38
-0.0043400005 0.1426 0.65100002 1.2256479e-38
-0.0012400001 0.1426 0.65100002 1.2256489e-38
0.0012400001 0.1426 0.65100002 1.2164666e-38
0.0043400005 0.1426 0.65100002 1.2348321e-38
0.0080600008 0.1426 0.65100002 1.2256489e-38
0.010546032 0.14267303 0.65133333 1.2164295e-38
0.013650477 0.14270905 0.65149999 1.2072465e-38
0.016138811 0.14276405 0.65175003 1.2072091e-38
0.019239366 0.14274572 0.65166664 1.1796237e-38
0.022337146 0.14270905 0.65149999 1.1796591e-38
0.025426194 0.14263636 0.65116668 1.1794808e-38
0.028520001 0.1426 0.65100002 9.3088355e-39
0.031620003 0.14260001 0.65100002 8.2972339e-39
0.034513336 0.14280666 0.65100002 8.0210128e-39
0.036580004 0.14322001 0.65100002 7.9291773e-39
-0.031668574 0.14530288 0.65200001 1.2349409e-38
-0.028563812 0.14530288 0.65200001 1.2349038e-38
-0.025574999 0.14554501 0.65100002 1.2257203e-38
-0.021700002 0.14570001 0.65100002 1.2348668e-38
-0.015500001 0.14446001 0.65100002 1.216538e-38
-0.013516 0.14545199 0.65100002 1.2165019e-38
-0.010540001 0.14570001 0.65100002 1.2256844e-38
-0.0074400008 0.14569999 0.65100002 1.2256484e-38
-0.004546667 0.14528668 0.65100002 1.2256132e-38
-0.0014466668 0.14487334 0.65100002 1.2256486e-38
0.0012400001 0.14446001 0.65100002 1.225614e-38
0.0043400005 0.14446001 0.65100002 1.2256131e-38
0.010540001 0.14554501 0.65100002 1.2164296e-38
0.01364 0.14570001 0.65100002 1.2072095e-38
0.016385715 0.14587715 0.65100002 1.2163578e-38
0.019409524 0.1454411 0.65142858 1.1888427e-38
0.022320002 0.14569999 0.65100002 1.1704753e-38
0.025420001 0.14569999 0.65100002 1.1887718e-38
0.028520001 0.14508002 0.65100002 1.1519311e-38
0.031625398 0.14572488 0.65111113 1.0044231e-38
0.034606863 0.14549677 0.6512 8.7549681e-39
0.037110098 0.14608192 0.6516 8.0206513e-39
0.039060004 0.14632002 0.65100002 7.8366257e-39
-0.030426668 0.14716573 0.65200001 1.253236e-38
-0.028563812 0.14778668 0.65200001 1.2440523e-38
-0.026246667 0.14859335 0.65100002 1.2349045e-38
-0.010556191 0.14840762 0.65200001 1.2257207e-38
-0.0041341274 0.14863096 0.65116668 1.2256484e-38
-0.0014479365 0.14750381 0.65166664 1.2256472e-38
0.0080600008 0.14818001 0.65100002 1.2164675e-38
0.010540001 0.14818001 0.65100002 1.2072099e-38
0.01364 0.14880002 0.65100002 1.2071731e-38
0.016740002 0.14867601 0.65100002 1.2163578e-38
0.021700002 0.14942001 0.65100002 1.1888058e-38
0.025833333 0.14900668 0.65100002 1.1887714e-38
0.028542064 0.14829318 0.65149999 1.1704762e-38
0.031620003 0.14849001 0.65100002 1.1428531e-38
0.035043575 0.14823644 0.65125 9.5843434e-39
0.036580004 0.14818001 0.65100002 8.1124797e-39
-0.0043400005 0.15128 0.65100002 1.216501e-38
-0.0012400001 0.15128 0.65100002 1.2165375e-38
0.0012400001 0.15128002 0.65100002 1.2165373e-38
0.0037200004 0.15128002 0.65100002 1.1980625e-38
0.014260001 0.15190001 0.65100002 1.2164303e-38
0.015500001 0.15128002 0.65100002 1.216394e-38
0.025420003 0.15066001 0.65100002 1.1887714e-38
0.028520001 0.15128002 0.65100002 1.1704404e-38
-0.0035133336 0.15396668 0.65100002 1.2440505e-38
-0.0014466668 0.15396668 0.65100002 1.2256472e-38
0.0013640001 0.15462801 0.65100002 1.2256489e-38
0.0037200004 0.15438001 0.65100002 1.207282e-38
0.022940002 0.15438001 0.65100002 1.1980274e-38
0.028726667 0.15479334 0.65100002 1.1613286e-38
0.044020005 0.15376002 0.65100002 8.5727474e-39
0.045260005 0.15314001 0.65100002 8.389075e-39
-0.0031000001 0.15686001 0.65100002 1.2256838e-38
-0.0012400001 0.15686001 0.65100002 1.2256838e-38
0.0012400001 0.15686001 0.65100002 1.2256844e-38
0.0031000001 0.15686001 0.65100002 1.2256852e-38
0.024800003 0.15686001 0.65100002 1.1980628e-38
0.028520001 0.15748 0.65100002 1.1152695e-38
0.025420001 0.16182001 0.65100002 1.2069976e-38
0.022940002 0.16368002 0.65100002 1.1888803e-38
0.025420001 0.16306001 0.65100002 1.0688163e-38
-0.054354288 0.074346669 0.65600002 6.0841829e-39
-0.052480005 0.074346669 0.65600002 5.9008776e-39
-0.050528575 0.074233338 0.65500003 5.6253655e-39
-0.05185524 0.075596198 0.65600002 5.9923516e-39
-0.049302995 0.076761775 0.65528578 6.0849032e-39
-0.046785716 0.077976197 0.65500003 6.0852675e-39
-0.056228574 0.080594294 0.65600002 1.0967199e-38
-0.049106289 0.079594672 0.65600002 6.3600453e-39
-0.046369839 0.079639681 0.65500003 5.9930677e-39
-0.043733336 0.080594294 0.65600002 5.8097554e-39
-0.058102861 0.081843816 0.65600002 1.1426385e-38
-0.055603813 0.082468577 0.65600008 1.1151223e-38
-0.05227175 0.082260318 0.65600002 1.1151581e-38
-0.049356192 0.082468577 0.65600008 8.8471133e-39
-0.046232384 0.082468577 0.65600002 6.5440708e-39
-0.043700002 0.082405247 0.65550005 6.0852535e-39
-0.041171432 0.08296667 0.65500003 6.1770918e-39
-0.05560381 0.085592382 0.65600008 1.1059029e-38
-0.052480001 0.085592389 0.65600008 1.1151235e-38
-0.049356192 0.085592389 0.65600008 1.087536e-38
-0.046232384 0.085592389 0.65600008 1.0227499e-38
-0.043688893 0.085505091 0.65533334 7.1890661e-39
-0.040581379 0.085534394 0.65555561 6.1767359e-39
-0.037485719 0.08621715 0.65600002 5.9927173e-39
-0.035611432 0.086841911 0.65600002 5.9916468e-39
-0.063100956 0.089340955 0.65600002 1.124306e-38
-0.061226673 0.089340955 0.65600002 1.1243059e-38
-0.058519367 0.088924445 0.65600002 1.1242699e-38
-0.055603813 0.088716187 0.65600008 1.1242692e-38
-0.052480005 0.088716194 0.65600002 1.1242692e-38
-0.049356192 0.088716187 0.65600008 1.1242696e-38
-0.046232384 0.088716194 0.65600002 1.1059024e-38
-0.043683574 0.088614523 0.65525001 1.1149433e-38
-0.040567622 0.088626035 0.65533334 8.1092049e-39
-0.037471194 0.088682145 0.65575004 6.7263097e-39
-0.034973573 0.088682145 0.65575004 5.9923516e-39
-0.063100956 0.091840006 0.65600002 1.1334534e-38
-0.061018419 0.091423504 0.65600002 1.1334537e-38
-0.058935877 0.091423504 0.65600002 1.12427e-38
-0.055575557 0.091792703 0.65566671 1.1058678e-38
-0.052588768 0.09156172 0.65579998 1.1150509e-38
-0.049181432 0.09164834 0.6557501 1.1150509e-38
-0.046197306 0.091769695 0.65549999 1.1150503e-38
-0.043666672 0.091699995 0.65500003 1.1058671e-38
-0.040547624 0.091700003 0.65500003 1.1057952e-38
-0.037447304 0.09174636 0.65533334 8.7549148e-39
-0.03433973 0.091779731 0.65557146 6.9099793e-39
-0.031190479 0.09232381 0.65500003 6.4515207e-39
-0.028903177 0.092531748 0.65500003 5.9012266e-39
-0.025576191 0.092947625 0.65500003 6.084906e-39
-0.07548096 0.095442861 0.65500003 1.1335615e-38
-0.074233338 0.095442861 0.65500003 1.1427454e-38
-0.070348196 0.095088765 0.65600002 1.1335276e-38
-0.06732858 0.094559811 0.65580004 1.1427104e-38
-0.064339586 0.09432286 0.65588897 1.1426729e-38
-0.06122667 0.09433905 0.65600008 1.142638e-38
-0.058727622 0.09433905 0.65600008 1.12427e-38
-0.055519048 0.094819047 0.65500003 1.1150512e-38
-0.052307241 0.094502285 0.65540004 1.1242347e-38
-0.049470209 0.094571985 0.65514284 1.1150873e-38
-0.046161905 0.094819054 0.65500003 1.1426008e-38
-0.043666668 0.094819054 0.65500003 1.1334185e-38
-0.04057857 0.094891906 0.65550011 1.1242707e-38
-0.037428573 0.094819054 0.65500003 1.1152295e-38
-0.035258811 0.094230719 0.65525001 1.0044192e-38
-0.030566668 0.094819054 0.65500003 5.7179087e-39
-0.028695241 0.094819054 0.65500003 6.1756555e-39
-0.025992066 0.094611116 0.65500003 6.0848976e-39
-0.075896829 0.097522229 0.65500003 1.1335256e-38
-0.073693573 0.097425953 0.65575004 1.13349e-38
-0.070562862 0.097413339 0.65566671 1.1335264e-38
-0.067371428 0.097314291 0.65500003 1.1335262e-38
-0.064284451 0.097363807 0.65533334 1.1334894e-38
-0.0612031 0.097425476 0.65575004 1.1334893e-38
-0.058727622 0.097462863 0.65600002 1.133454e-38
-0.055519048 0.097314291 0.65500003 1.1241988e-38
-0.0524 0.097314291 0.65500003 1.1241984e-38
-0.049280956 0.097314291 0.65500003 1.1242717e-38
-0.046161905 0.097314291 0.65500003 1.1426373e-38
-0.043666672 0.097314291 0.65500003 1.1334185e-38
-0.040547624 0.097314291 0.65500003 1.1334548e-38
-0.037428573 0.097314291 0.65500003 1.1335262e-38
-0.034309525 0.097314291 0.65500003 1.1243416e-38
-0.031190479 0.097314291 0.65500003 1.041153e-38
-0.028695241 0.097314291 0.65500003 7.1887046e-39
-0.025576193 0.096690483 0.65500003 6.452248e-39
-0.076405309 0.10065509 0.65528578 1.1335252e-38
-0.073628098 0.10045857 0.65516669 1.142709e-38
-0.070490479 0.10043333 0.65500003 1.1334904e-38
-0.067371428 0.10043334 0.65500003 1.1243426e-38
-0.064252391 0.10043333 0.65500003 1.1334894e-38
-0.06113334 0.10043333 0.65500003 1.1334546e-38
-0.058638096 0.10043334 0.65500003 1.1426391e-38
-0.055519048 0.10043333 0.65500003 1.1334539e-38
-0.052400004 0.10043334 0.65500003 1.12427e-38
-0.049280956 0.10043333 0.65500003 1.1242713e-38
-0.046161905 0.10043334 0.65500003 1.133454e-38
-0.043677941 0.10045857 0.65516669 1.1334183e-38
-0.040568259 0.10048382 0.65533334 1.1334904e-38
-0.037428573 0.10043334 0.65500003 1.1427457e-38
-0.034309521 0.10027739 0.65500003 1.1427813e-38
-0.031190479 0.10043334 0.65500003 1.1612189e-38
-0.028695241 0.10043334 0.65500003 1.1150862e-38
-0.079761274 0.10391874 0.65600002 1.1426011e-38
-0.076728582 0.10355239 0.65500003 1.1334896e-38
-0.073609531 0.10355239 0.65500003 1.1334897e-38
-0.070490487 0.10355239 0.65500003 1.1335263e-38
-0.067371428 0.10355239 0.65500003 1.1335259e-38
-0.064252384 0.10355239 0.65500003 1.142637e-38
-0.06113334 0.10355239 0.65500003 1.1334546e-38
-0.058638096 0.10355239 0.65500003 1.1426745e-38
-0.055519048 0.10355239 0.65500003 1.1334541e-38
-0.0524 0.10355239 0.65500003 1.1426377e-38
-0.049280956 0.10355239 0.65500003 1.1242714e-38
-0.046161905 0.10355239 0.65500003 1.1334906e-38
-0.043666668 0.10355239 0.65500003 1.1334544e-38
-0.040547624 0.10355239 0.65500003 1.1335267e-38
-0.037428573 0.10355239 0.65500003 1.1428175e-38
-0.035557143 0.10355239 0.65500003 1.152001e-38
-0.030566668 0.10355239 0.65500003 1.1703688e-38
-0.028695241 0.10355239 0.65500003 1.1704408e-38
-0.079722859 0.10667143 0.65500003 1.1243056e-38
-0.076728567 0.10667142 0.65500003 1.1243419e-38
-0.073609531 0.10667143 0.65500003 1.1426736e-38
-0.070490479 0.10667143 0.65500003 1.133491e-38
-0.067371428 0.10667143 0.65500003 1.1334903e-38
-0.064430617 0.1070279 0.65500003 1.142637e-38
-0.0612581 0.10692096 0.65500003 1.1518572e-38
-0.059261907 0.10791905 0.65500003 1.151893e-38
-0.054770481 0.10692096 0.65500003 1.1334903e-38
-0.052400004 0.10667143 0.65500003 1.1427099e-38
-0.04928096 0.10667143 0.65500003 1.1335262e-38
-0.046161905 0.10667145 0.65500003 1.1427104e-38
-0.043791436 0.10642191 0.65500003 1.1426733e-38
-0.039300002 0.10542382 0.65500003 1.161185e-38
-0.02807143 0.10542382 0.65500003 1.17966e-38
-0.079223812 0.10916667 0.65500003 1.1335616e-38
-0.076728582 0.10916667 0.65500003 1.1335616e-38
-0.073609531 0.10979049 0.65500003 1.1335616e-38
-0.070490479 0.10979048 0.65500003 1.1335264e-38
-0.067371428 0.10979049 0.65500003 1.1517862e-38
-0.064668261 0.10999843 0.65500003 1.1426736e-38
-0.060509529 0.10979049 0.65500003 1.1426741e-38
-0.059261907 0.1104143 0.65500003 1.142674e-38
-0.054687306 0.10999843 0.65500003 1.1427101e-38
-0.0524 0.10979049 0.65500003 1.1427464e-38
-0.049280956 0.10979048 0.65500003 1.1427449e-38
-0.046369839 0.10958255 0.65500003 1.1610758e-38
-0.07548096 0.11166191 0.65500003 1.1335616e-38
-0.073609531 0.11228572 0.65500003 1.1335611e-38
-0.070490479 0.11228573 0.65500003 1.1335256e-38
-0.067371428 0.11228572 0.65500003 1.1426382e-38
-0.06394048 0.11259763 0.65500003 1.1243063e-38
-0.060925405 0.11249366 0.65500003 1.1426738e-38
-0.058638096 0.11228572 0.65500003 1.1518935e-38
-0.055519052 0.11228572 0.65500003 1.161113e-38
-0.0524 0.11166191 0.65500003 1.1518949e-38
-0.04959286 0.11197381 0.65500003 1.1611487e-38
-0.046785716 0.11166191 0.65500003 1.1703681e-38
-0.030566668 0.11290953 0.65500003 1.2071748e-38
-0.072985716 0.11415715 0.65500003 1.1427086e-38
-0.070490479 0.11540476 0.65500003 1.1243059e-38
-0.067371428 0.11540478 0.65500003 1.1335255e-38
-0.064252391 0.11540476 0.65500003 1.1335613e-38
-0.06100858 0.11515524 0.65500003 1.1427096e-38
-0.05876286 0.11515524 0.65500003 1.1427108e-38
-0.055934925 0.1149889 0.65500003 1.1702961e-38
-0.030566668 0.11540477 0.65500003 1.2164303e-38
-0.02931905 0.11540477 0.65500003 1.2163956e-38
-0.043042861 0.12039524 0.65500003 1.2071731e-38
-0.058280002 0.077080004 0.65800005 1.0323272e-38
-0.055688571 0.076337151 0.65700001 7.4627831e-39
-0.052768573 0.076545723 0.65700001 6.3593321e-39
-0.060694288 0.080717146 0.65700001 1.1151602e-38
-0.058745526 0.079788193 0.65760005 1.1426752e-38
-0.055509798 0.079108171 0.65700001 1.0229294e-38
-0.052560002 0.079465717 0.65700001 8.6609354e-39
-0.050682861 0.080091432 0.65700001 6.9124834e-39
-0.045677144 0.080717146 0.65700001 5.9934264e-39
-0.063293338 0.083346672 0.65800005 1.1334548e-38
-0.061320003 0.08259429 0.65700001 1.1150519e-38
-0.05902572 0.082802862 0.65700001 1.1333837e-38
-0.053185716 0.083220005 0.65700001 1.1519287e-38
-0.066951431 0.086974293 0.65700001 1.1242707e-38
-0.06431184 0.086136058 0.65742862 1.1150517e-38
-0.061320003 0.085722864 0.65700001 1.1150164e-38
-0.058817148 0.085722864 0.65700001 1.1242005e-38
-0.067368574 0.089060009 0.65700001 1.1334185e-38
-0.06469886 0.088726297 0.65700001 1.115087e-38
-0.061320003 0.088225722 0.65700001 1.1150873e-38
-0.059442863 0.088225722 0.65700001 1.124236e-38
-0.069507152 0.091423333 0.65750003 1.1334908e-38
-0.067603096 0.091388814 0.65725005 1.1334901e-38
-0.06469886 0.091229156 0.65700001 1.1243058e-38
-0.061945718 0.090728581 0.65700001 1.124306e-38
-0.058191434 0.090728581 0.65700001 1.1150859e-38
-0.073208578 0.095108576 0.65700001 1.1426738e-38
-0.071018577 0.093544289 0.65700001 1.1427106e-38
-0.068202861 0.093231432 0.65700001 1.1427107e-38
