# .PCD v0.7 - Point Cloud Data file format
VERSION 0.7
FIELDS x y z rgb
SIZE 4 4 4 4
TYPE F F F F
COUNT 1 1 1 1
WIDTH 198
HEIGHT 1
VIEWPOINT 0 0 0 1 0 0 0
POINTS 198
DATA ascii
-0.018657144 -0.045399051 0.65300006 8.1938251e-39
-0.01554762 -0.045399051 0.65300006 8.0090779e-39
-0.013060001 -0.046020955 0.65300006 7.7332085e-39
-0.018657144 -0.043533336 0.65300006 8.1016337e-39
-0.016169524 -0.043533336 0.65300006 7.9172438e-39
-0.013681905 -0.043533336 0.65300006 7.8250468e-39
-0.010821144 -0.04340896 0.65300006 7.6403108e-39
-0.018657144 -0.041667622 0.65300006 8.0094409e-39
-0.016169526 -0.041667622 0.65300006 7.8257685e-39
-0.013474603 -0.041253019 0.65300006 7.7328498e-39
-0.010572381 -0.041667622 0.65300006 7.5484767e-39
-0.018118097 -0.05185524 0.65600002 8.2849418e-39
-0.016243812 -0.05185524 0.65600002 8.1009134e-39
-0.013744763 -0.05185524 0.65600002 7.8254252e-39
-0.019006668 -0.049167216 0.65585721 8.1941839e-39
-0.016239844 -0.04934397 0.65583336 8.0090765e-39
-0.013734446 -0.049319208 0.65550005 7.8250538e-39
-0.010772858 -0.049181666 0.6557501 7.4588189e-39
-0.0081219049 -0.04810667 0.65600002 7.3709546e-39
-0.022283176 -0.046024129 0.65600002 8.2867466e-39
-0.019657858 -0.046491668 0.65525001 8.2860222e-39
-0.016426986 -0.046369839 0.65500003 8.0094395e-39
-0.01434762 -0.046161905 0.65500003 7.9168809e-39
-0.010604762 -0.046161905 0.65500003 7.5495557e-39
-0.0074940482 -0.046215005 0.65575004 7.2783989e-39
-0.0056228577 -0.045607623 0.65600002 7.1905263e-39
-0.022491429 -0.043733336 0.65600002 8.2860264e-39
-0.020585716 -0.043666668 0.65500003 8.1938307e-39
-0.0093571432 -0.044290479 0.65500003 7.5484949e-39
-0.0074857147 -0.043666668 0.65500003 7.3684323e-39
-0.0056228577 -0.043733336 0.65600002 7.1894444e-39
-0.022179049 -0.040921904 0.65600002 8.1019966e-39
-0.019516328 -0.040191155 0.65500003 8.0094423e-39
-0.01621905 -0.039923809 0.65500003 7.9165278e-39
-0.013931748 -0.039715875 0.65500003 7.7321309e-39
-0.010607143 -0.039933808 0.65516669 7.4562769e-39
-0.0074912705 -0.040577937 0.65549999 7.2758737e-39
-0.0056228577 -0.041234288 0.65600002 7.2805569e-39
-0.019117717 -0.037610672 0.65600002 7.8254153e-39
-0.016237859 -0.037471194 0.65575004 7.8243349e-39
-0.013729287 -0.037442621 0.65525001 7.6403024e-39
-0.010870859 -0.037610672 0.65600002 7.4562699e-39
-0.016243812 -0.034986671 0.65600002 7.6399479e-39
-0.013744764 -0.034986667 0.65600002 7.5477495e-39
-0.011453968 -0.035194922 0.65600002 7.4562811e-39
-0.018173335 -0.057026669 0.65800005 7.7343183e-39
-0.016293334 -0.057653338 0.65800005 7.0007316e-39
-0.013786668 -0.057026669 0.65800005 7.1862187e-39
-0.010966668 -0.057340004 0.65800005 7.3742113e-39
-0.0075200005 -0.057026669 0.65800005 7.1912605e-39
-0.021933334 -0.054520003 0.65800005 8.2853075e-39
-0.019113336 -0.054833338 0.65800005 8.0094423e-39
-0.016280953 -0.055105239 0.65750003 7.7339512e-39
-0.013776192 -0.055105239 0.65750003 7.4599133e-39
-0.01064524 -0.055105243 0.65749997 7.2816555e-39
-0.0075169047 -0.055125955 0.65775001 7.1912591e-39
-0.0052222223 -0.05493778 0.65800005 7.1912591e-39
-0.024440002 -0.052640006 0.65800005 8.4704232e-39
-0.022551667 -0.052620243 0.65775007 8.4700547e-39
-0.019647431 -0.052685142 0.65700001 8.193465e-39
-0.016268574 -0.053185716 0.65700001 7.9176068e-39
-0.013765715 -0.053185716 0.65700001 7.6417654e-39
-0.010637143 -0.052560002 0.65700001 7.278759e-39
-0.0075200005 -0.052640006 0.65800005 7.1908934e-39
-0.0056400006 -0.052640006 0.65800005 7.1912563e-39
-0.025269369 -0.049076665 0.65783334 8.4711477e-39
-0.022531589 -0.049444288 0.65716666 8.6544515e-39
-0.020648573 -0.050057147 0.65700001 8.3785779e-39
-0.0093857152 -0.050682861 0.65700001 7.3709546e-39
-0.0073834294 -0.049681716 0.65700001 7.1898116e-39
-0.0050133336 -0.049506668 0.65800005 7.0994194e-39
-0.0018800001 -0.050760005 0.65800005 7.1912591e-39
0.0006266667 -0.049506672 0.65800005 7.099418e-39
-0.025667937 -0.04632635 0.65733337 8.2867494e-39
-0.023151429 -0.046928573 0.65700001 8.3789423e-39
-0.0041306671 -0.046442285 0.65720004 7.0990579e-39
-0.0012533334 -0.046373338 0.65800005 7.1905389e-39
0.0006266667 -0.046373338 0.65800005 7.1909004e-39
-0.025667937 -0.043822229 0.65733337 8.194551e-39
-0.0037542861 -0.043800004 0.65700001 7.1908906e-39
-0.0012533334 -0.043866672 0.65800005 7.0990621e-39
0.0006266667 -0.043866672 0.65800005 7.0994292e-39
-0.025667937 -0.040692069 0.65733337 8.0101681e-39
-0.023151429 -0.040045716 0.65700001 8.1020036e-39
-0.0040231296 -0.040501229 0.65714294 7.0061336e-39
-0.0012528572 -0.040722702 0.6578334 7.0072224e-39
0.0010444445 -0.041568894 0.65800005 7.099425e-39
-0.02506667 -0.037600003 0.65800005 8.0101808e-39
-0.022525717 -0.037542861 0.65700001 8.1016491e-39
-0.020648573 -0.036917146 0.65700001 7.8257755e-39
-0.0093857152 -0.036917146 0.65700001 7.3640855e-39
-0.0075085717 -0.037542861 0.65700001 7.0003574e-39
-0.0043852385 -0.037590317 0.6578334 6.9132219e-39
-0.0012533334 -0.038226668 0.65800005 6.9143065e-39
-0.024753336 -0.034780003 0.65800005 7.7335827e-39
-0.022554444 -0.03445762 0.6578334 7.8250594e-39
-0.019400634 -0.034419898 0.65711111 7.6406654e-39
-0.016268574 -0.033162858 0.65700001 7.5473949e-39
-0.013765715 -0.033162858 0.65700001 7.4555566e-39
-0.010220001 -0.033997145 0.65700001 7.1811488e-39
-0.0075123813 -0.034431115 0.65733337 6.9106954e-39
-0.0043866672 -0.034466669 0.65800005 6.8213976e-39
-0.0013786668 -0.034216002 0.65800005 6.5466072e-39
-0.019113336 -0.031646669 0.65800005 7.4559182e-39
-0.016287383 -0.03132119 0.65775001 7.455558e-39
-0.013781668 -0.03132119 0.65775001 7.271887e-39
-0.010904001 -0.031458668 0.65800005 7.090751e-39
-0.0075200005 -0.031960003 0.65800005 6.821378e-39
-0.0056400006 -0.031960003 0.65800005 6.7306341e-39
-0.0018800001 -0.031960003 0.65800005 6.8217549e-39
-0.024551431 -0.057286669 0.66100001 8.0087178e-39
-0.022637382 -0.057850242 0.66025001 7.8261454e-39
-0.019737145 -0.057954289 0.66000003 7.6428458e-39
-0.027069526 -0.054768573 0.66100001 8.1927531e-39
-0.025171669 -0.055377383 0.66075003 8.1927433e-39
-0.022838095 -0.055523813 0.66000003 8.1931105e-39
-0.020114288 -0.05594286 0.66000003 8.0094451e-39
-0.003771429 -0.055314288 0.66000003 7.0994222e-39
-0.0018857144 -0.054685719 0.66000003 7.1912563e-39
-0.030893335 -0.051068574 0.66200006 8.2860278e-39
-0.027475558 -0.05264318 0.6606667 8.1938321e-39
-0.02577143 -0.052800003 0.66000003 8.3785835e-39
-0.003771429 -0.052800003 0.66000003 7.1912577e-39
-0.0014666668 -0.052590478 0.66000003 7.190899e-39
-0.033415239 -0.048546668 0.66200006 8.0105269e-39
-0.031523813 -0.049177147 0.66200006 8.1941979e-39
-0.028470358 -0.04986155 0.6606251 8.2863893e-39
-0.02577143 -0.050914288 0.66000003 8.4715078e-39
-0.0031428572 -0.049657147 0.66000003 7.1912577e-39
-0.0011314286 -0.049405716 0.66000003 7.1912563e-39
0.00062857149 -0.048400003 0.66000003 7.1912619e-39
-0.033415239 -0.047285717 0.66200006 8.0098066e-39
-0.031512145 -0.046637386 0.66175008 8.2853117e-39
-0.028936669 -0.046549525 0.66050005 8.2860348e-39
-0.031196905 -0.043801196 0.66175008 8.1016351e-39
-0.028951272 -0.043425556 0.66083336 8.1019966e-39
-0.028980479 -0.040320002 0.66150004 7.9176054e-39
0.00062857149 -0.039600004 0.66000003 7.0994222e-39
-0.027700003 -0.03777143 0.66100001 7.8261328e-39
-0.001257143 -0.037085716 0.66000003 6.8221137e-39
0.00062857149 -0.037714288 0.66000003 6.8228367e-39
-0.027706826 -0.034632225 0.66116673 7.5495501e-39
-0.02577143 -0.03394286 0.66000003 7.5495529e-39
-0.00062857149 -0.035828575 0.66000003 6.6380854e-39
0.0010485715 -0.035427622 0.66033334 6.5469673e-39
-0.027090002 -0.031499527 0.66150004 7.3644428e-39
-0.025171669 -0.031464048 0.66075003 7.3644428e-39
-0.022628572 -0.031428576 0.66000003 7.3648029e-39
-0.020114288 -0.030800002 0.66000003 7.3644428e-39
-0.0094285719 -0.030800002 0.66000003 7.0032399e-39
-0.0075428574 -0.030800002 0.66000003 6.822457e-39
-0.0041485718 -0.031302858 0.66000003 6.8221179e-39
-0.00062857149 -0.032057144 0.66000003 6.6388e-39
-0.027110478 -0.029632382 0.66200006 7.363361e-39
-0.025219049 -0.029632382 0.66200006 7.2722458e-39
-0.022809524 -0.028605718 0.66159999 7.3640841e-39
-0.019520478 -0.028964603 0.66116673 7.3640799e-39
-0.01636762 -0.028957147 0.66100007 7.2718856e-39
-0.013732001 -0.028596764 0.66140002 6.7216055e-39
-0.010701906 -0.028327303 0.66100001 6.7263013e-39
-0.0075580957 -0.028342223 0.66133332 7.0054175e-39
-0.0048204768 -0.028711589 0.66016668 6.9143107e-39
-0.022697143 -0.025219049 0.66200006 7.1804299e-39
-0.013240001 -0.025219049 0.66200006 4.885274e-39
-0.011033334 -0.025534287 0.66200006 5.9912656e-39
-0.0069352384 -0.025849525 0.66200006 6.913945e-39
-0.034149528 -0.046163812 0.66400003 7.9172508e-39
-0.034728572 -0.04356857 0.66300005 7.7332211e-39
-0.032202858 -0.042937145 0.66300005 7.917604e-39
-0.034200002 -0.039900001 0.66500002 7.5484697e-39
-0.031620003 -0.040472385 0.66400003 7.732861e-39
-0.033566669 -0.038000003 0.66500002 7.6403094e-39
-0.031635556 -0.037328575 0.66433334 7.6413842e-39
-0.029677145 -0.037885718 0.66300005 7.7339302e-39
-0.033566669 -0.034200002 0.66500002 7.2729632e-39
-0.031643339 -0.034173813 0.6645 7.4573545e-39
-0.029677145 -0.034728572 0.66300005 7.5499047e-39
-0.033988889 -0.031877782 0.66500002 7.1800501e-39
-0.029090479 -0.03161905 0.66400003 7.2726073e-39
-0.03166667 -0.029766669 0.66500002 7.3633638e-39
-0.02863786 -0.028320717 0.6645 7.2715283e-39
-0.025257144 -0.027782857 0.66300005 7.3633652e-39
-0.022100002 -0.02715143 0.66300005 7.5477649e-39
-0.019574286 -0.02715143 0.66300005 7.3633652e-39
-0.016417144 -0.02715143 0.66300005 7.0882231e-39
-0.014522858 -0.02715143 0.66300005 6.6297686e-39
-0.02715143 -0.025888573 0.66300005 7.179711e-39
-0.025257144 -0.025888573 0.66300005 7.2715395e-39
-0.019574286 -0.025257146 0.66300005 6.9049122e-39
-0.016417144 -0.025257144 0.66300005 6.0783997e-39
-0.014522858 -0.025257144 0.66300005 5.4351939e-39
-0.0075876196 -0.025294287 0.66400003 6.8224654e-39
-0.033617146 -0.041228574 0.66600001 7.7335756e-39
-0.034251429 -0.037422858 0.66600001 7.5484669e-39
-0.034885716 -0.034251429 0.66600001 7.2718842e-39
-0.031714287 -0.031714287 0.66600001 7.2726059e-39
-0.031080002 -0.027908575 0.66600001 7.4552007e-39
-0.028542859 -0.026005715 0.66600001 7.1793467e-39
