# .PCD v0.7 - Point Cloud Data file format
VERSION 0.7
FIELDS x y z rgb
SIZE 4 4 4 4
TYPE F F F F
COUNT 1 1 1 1
WIDTH 117
HEIGHT 1
VIEWPOINT 0 0 0 1 0 0 0
POINTS 117
DATA ascii
-0.064380959 0.23585716 0.65000004 3.2418858e-39
-0.062523812 0.23585716 0.65000004 3.6095837e-39
-0.066238098 0.23957144 0.65000004 3.150409e-39
-0.064174615 0.23874605 0.65000004 3.3337171e-39
-0.061698418 0.23874605 0.65000004 3.5173923e-39
-0.05819048 0.23957144 0.65000004 3.3333934e-39
-0.066238098 0.24080954 0.65000004 3.3340772e-39
-0.064380959 0.24142858 0.65000004 3.5173839e-39
-0.061533339 0.24130479 0.65000004 3.4251966e-39
-0.063761912 0.24328573 0.65000004 3.4255498e-39
-0.062523812 0.24328573 0.65000004 3.3337157e-39
-0.06087302 0.25153971 0.65000004 3.7000067e-39
-0.05819048 0.25195241 0.65000004 6.4612163e-39
-0.056333337 0.2507143 0.65000004 7.1973702e-39
-0.051380955 0.2507143 0.65000004 8.5752726e-39
-0.049523816 0.2507143 0.65000004 8.5756313e-39
-0.046222225 0.251127 0.65000004 8.6678255e-39
-0.060666673 0.25380954 0.65000004 4.2524896e-39
-0.05819048 0.25380954 0.65000004 7.2881141e-39
-0.055714291 0.25380954 0.65000004 8.3919491e-39
-0.052619051 0.25393337 0.65000004 8.5756285e-39
-0.049369909 0.25402364 0.64960009 8.6678241e-39
-0.047142096 0.25402364 0.64960009 8.5759886e-39
-0.069952384 0.25628573 0.65000004 3.6088592e-39
-0.067476206 0.25628576 0.65000004 3.5173881e-39
-0.064380959 0.25628573 0.65000004 4.4364913e-39
-0.061285719 0.25628576 0.65000004 6.2753999e-39
-0.05819048 0.25628573 0.65000004 8.0238869e-39
-0.055714287 0.25628573 0.65000004 8.5756299e-39
-0.052772246 0.25643757 0.64971435 8.6671137e-39
-0.050142862 0.25628573 0.65000004 8.7593079e-39
-0.069952384 0.25814289 0.65000004 3.7921911e-39
-0.067228578 0.25863814 0.65000004 4.8946052e-39
-0.064380959 0.25876194 0.65000004 6.2750341e-39
-0.061130956 0.25922623 0.65000004 7.5621954e-39
-0.05819048 0.25938097 0.65000004 8.2997591e-39
-0.055657145 0.25911495 0.64933342 8.6674696e-39
-0.052801143 0.25881413 0.64920002 8.6671109e-39
-0.07027524 0.2332143 0.65300006 3.5173937e-39
-0.067165717 0.2325924 0.65300006 3.3333667e-39
-0.064678103 0.2332143 0.65300006 3.1489741e-39
-0.06155318 0.23253286 0.6528334 2.9606704e-39
-0.058228005 0.23253658 0.65180004 5.6275278e-39
-0.055306833 0.23241413 0.65250003 7.7473014e-39
-0.052080002 0.23188002 0.65100002 8.2976025e-39
-0.050220001 0.23374002 0.65100002 8.1139343e-39
-0.070843339 0.23552079 0.65250009 3.2422557e-39
-0.067637891 0.23517969 0.65155554 3.1504132e-39
-0.064529531 0.23453954 0.65149999 3.2418844e-39
-0.061272144 0.23500477 0.65149999 3.331929e-39
-0.05844019 0.23537202 0.65139997 3.6027972e-39
-0.055283599 0.23542097 0.65222222 7.1033767e-39
-0.052146826 0.23528081 0.6518333 7.9302647e-39
-0.049882542 0.23616953 0.65200001 8.1139371e-39
-0.073064767 0.23865207 0.65200001 3.1507677e-39
-0.070599809 0.2385983 0.65139997 2.966738e-39
-0.067735001 0.23854503 0.65100002 2.9663765e-39
-0.064686678 0.23828669 0.65100002 3.1500489e-39
-0.060553338 0.23787336 0.65100002 3.6085089e-39
-0.058280002 0.23808002 0.65100002 2.7794965e-39
-0.055355716 0.23863645 0.65125 6.275051e-39
-0.051988382 0.2385983 0.65139997 7.8387907e-39
-0.049676195 0.23844573 0.65200001 8.0224589e-39
-0.047351111 0.23882222 0.65133333 8.114293e-39
-0.073300719 0.24102215 0.65224999 2.9667352e-39
-0.070869721 0.2416503 0.6516 3.1500447e-39
-0.067828007 0.241924 0.65100002 3.0585679e-39
-0.060140003 0.24242002 0.65100002 3.4248463e-39
-0.058280002 0.24180001 0.65100002 3.9765992e-39
-0.055062588 0.24179921 0.65171432 6.4590793e-39
-0.052252572 0.2416503 0.6516 7.8391411e-39
-0.049676195 0.24155049 0.65200001 8.0228121e-39
-0.047447622 0.24138351 0.65266675 8.1146504e-39
-0.073366195 0.24434589 0.6528334 2.9663695e-39
-0.070788577 0.24465525 0.65200001 2.966015e-39
-0.067632541 0.24446781 0.65149999 2.9663793e-39
-0.064686678 0.24448669 0.65100002 3.1504034e-39
-0.061132003 0.244404 0.65100002 3.2418788e-39
-0.058280002 0.24428003 0.65100002 3.8836637e-39
-0.05547886 0.24438059 0.6516 6.6430978e-39
-0.052468192 0.2444789 0.6512 7.8387809e-39
-0.049638096 0.24446715 0.65149999 8.2061285e-39
-0.047033336 0.2444905 0.65266669 8.391596e-39
-0.04415524 0.24565239 0.65300006 8.7603827e-39
-0.073177464 0.24731082 0.65300006 2.8748913e-39
-0.070842862 0.24732906 0.65250003 3.0582064e-39
-0.067683816 0.24713905 0.65200001 3.058205e-39
-0.064554527 0.24704453 0.65174997 2.8748927e-39
-0.061380003 0.24738002 0.65100002 3.1504062e-39
-0.058280006 0.24738002 0.65100002 3.333385e-39
-0.055800006 0.24738002 0.65100002 6.9196847e-39
-0.052700002 0.24738002 0.65100002 8.2064873e-39
-0.049600001 0.24738002 0.65100002 8.5745495e-39
-0.047131911 0.24744304 0.65116668 8.8507777e-39
-0.073272705 0.25024319 0.65200001 3.1500405e-39
-0.070788577 0.25024381 0.65200001 3.0582064e-39
-0.067672275 0.25020096 0.65188885 3.1500419e-39
-0.064546354 0.2501156 0.65166664 3.3337143e-39
-0.061380006 0.25035602 0.65100002 3.5173965e-39
-0.058280002 0.25048 0.65100002 5.1711921e-39
-0.055593338 0.25068668 0.65100002 7.932773e-39
-0.052948005 0.250604 0.65100002 8.5749096e-39
-0.046913337 0.25027335 0.65100002 8.7596596e-39
-0.075135246 0.25334859 0.65200001 3.5173825e-39
-0.073197789 0.25370952 0.65133333 3.3337101e-39
-0.070734449 0.25377414 0.65149999 3.3337143e-39
-0.067603074 0.25366616 0.65122223 3.3337157e-39
-0.064496674 0.25364462 0.65116668 3.4259127e-39
-0.062620007 0.25358 0.65100002 3.1504272e-39
-0.055180002 0.25234002 0.65100002 8.3004723e-39
-0.053113338 0.25275335 0.65100002 8.5756271e-39
-0.073160008 0.25668001 0.65100002 3.4255512e-39
-0.071300007 0.25668001 0.65100002 3.5173853e-39
-0.072540008 0.25854 0.65100002 3.6085201e-39
-0.070680007 0.25916001 0.65100002 4.4354067e-39
-0.068820007 0.25978002 0.65100002 5.354503e-39
-0.058638096 0.23143335 0.65500003 6.4594324e-39
