# .PCD v0.7 - Point Cloud Data file format
VERSION 0.7
FIELDS x y z rgb
SIZE 4 4 4 4
TYPE F F F F
COUNT 1 1 1 1
WIDTH 192
HEIGHT 1
VIEWPOINT 0 0 0 1 0 0 0
POINTS 192
DATA ascii
0.26236534 -0.15341265 0.62300003 1.4561513e-38
0.25390124 -0.15072918 0.62300003 1.6025829e-38
0.25620961 -0.15130422 0.62300009 1.5110369e-38
0.26198062 -0.15187924 0.62300003 1.4561516e-38
0.25390124 -0.147854 0.62300003 1.6025451e-38
0.25620961 -0.14957911 0.62300003 1.5110002e-38
0.25628361 -0.15607741 0.62600005 1.4834849e-38
0.25876805 -0.15698186 0.625 1.4468597e-38
0.24816532 -0.15376621 0.62600005 1.6940157e-38
0.24932508 -0.15376621 0.62600005 1.6756483e-38
0.25423881 -0.15415932 0.62524998 1.5933265e-38
0.25675768 -0.15393339 0.62433332 1.4834857e-38
0.25950065 -0.15473257 0.62457144 1.44686e-38
0.26184857 -0.15490136 0.62475002 1.4560797e-38
0.24990496 -0.1526106 0.62600005 1.6847603e-38
0.25317124 -0.15159704 0.625 1.6390244e-38
0.25970998 -0.15124951 0.62420005 1.4377126e-38
0.26243538 -0.15121184 0.625 1.4469323e-38
0.26498181 -0.151455 0.62600005 1.4652994e-38
0.25355768 -0.14890407 0.62500006 1.6482808e-38
0.25662088 -0.14809133 0.62400001 1.5110355e-38
0.25989482 -0.14872171 0.62519997 1.4560797e-38
0.2620824 -0.1491438 0.62600005 1.4560804e-38
0.25164458 -0.14567699 0.62600005 1.7308595e-38
0.25369263 -0.14552206 0.62533337 1.648318e-38
0.25645348 -0.14544366 0.625 1.4926323e-38
0.25885201 -0.1463692 0.62566668 1.4560431e-38
0.25164458 -0.14163238 0.62600005 1.7218203e-38
0.2535775 -0.14259537 0.62600005 1.6759411e-38
0.25551045 -0.14298056 0.62600005 1.5200389e-38
0.2489582 -0.16585042 0.62800002 1.4740868e-38
0.2505033 -0.16571838 0.62750006 1.4466438e-38
0.25320819 -0.16558632 0.62700003 1.4283493e-38
0.24585871 -0.16379224 0.62900001 1.6111879e-38
0.2476984 -0.16370906 0.62812507 1.5746705e-38
0.2503964 -0.16332848 0.62785721 1.5382251e-38
0.25262737 -0.16327143 0.62700003 1.4834141e-38
0.2458587 -0.16088939 0.62900001 1.6662135e-38
0.24757163 -0.1603485 0.62785721 1.6387343e-38
0.25050378 -0.16050616 0.62750006 1.593037e-38
0.253057 -0.16031304 0.62720001 1.5383697e-38
0.25669304 -0.16008845 0.62700003 1.437604e-38
0.24788992 -0.15755858 0.62787497 1.6755406e-38
0.25063702 -0.15769318 0.62783337 1.6388083e-38
0.25320819 -0.15748417 0.62700003 1.5932527e-38
0.25669304 -0.15806291 0.62700003 1.4743016e-38
0.25901625 -0.15864164 0.62700003 1.4560433e-38
0.2445631 -0.15384096 0.6286667 1.7032341e-38
0.24748313 -0.15490392 0.62780005 1.6939797e-38
0.25049779 -0.15478346 0.62700003 1.6663927e-38
0.25262737 -0.15459055 0.62700003 1.6480272e-38
0.24236274 -0.15160024 0.62900001 1.7308193e-38
0.24436827 -0.15139955 0.62816668 1.7216363e-38
0.24748762 -0.1517507 0.62722224 1.7123821e-38
0.25030416 -0.15111822 0.62700003 1.7123466e-38
0.25204659 -0.15169694 0.62700003 1.68476e-38
0.26561719 -0.15065953 0.62750006 1.456116e-38
0.2675736 -0.15077958 0.62800002 1.456116e-38
0.24236274 -0.14811683 0.62900001 1.7491169e-38
0.24404438 -0.14830337 0.62733334 1.7399692e-38
0.24753186 -0.1483036 0.62733334 1.7491892e-38
0.25037053 -0.14826399 0.62716669 1.7307858e-38
0.25233698 -0.14851396 0.62700003 1.7032354e-38
0.26260573 -0.14799386 0.62725008 1.4468608e-38
0.26544535 -0.14834562 0.62812507 1.4377132e-38
0.26785764 -0.14861919 0.62866664 1.4377489e-38
0.24236274 -0.14579454 0.62900001 1.767628e-38
0.24444976 -0.14521413 0.62837499 1.7401138e-38
0.24746592 -0.14536943 0.62716669 1.7860317e-38
0.25030416 -0.14533095 0.62700003 1.7492618e-38
0.25204659 -0.14475223 0.62700003 1.7308958e-38
0.25992897 -0.14521502 0.62733334 1.4468956e-38
0.2623274 -0.14494862 0.62857145 1.4652628e-38
0.26526067 -0.14541326 0.62842858 1.4744467e-38
0.26736057 -0.14544731 0.62750006 1.4560793e-38
0.24449888 -0.14335775 0.62849998 1.6389876e-38
0.24788992 -0.1427808 0.62787497 1.7861404e-38
0.25030419 -0.14243734 0.62700003 1.7493339e-38
0.25320819 -0.14243734 0.62700003 1.6759042e-38
0.25679538 -0.14220478 0.62725002 1.4558984e-38
0.25929371 -0.14261366 0.62880003 1.4467878e-38
0.26188177 -0.1426014 0.62900001 1.4561153e-38
0.26545739 -0.14335775 0.62849998 1.4652988e-38
0.26714751 -0.14359479 0.62700003 1.4653349e-38
0.25088498 -0.14012243 0.62700003 1.7402224e-38
0.25262737 -0.14012243 0.62700003 1.6668288e-38
0.24430239 -0.16547787 0.63100004 1.5836009e-38
0.24157065 -0.16327703 0.63150001 1.6386627e-38
0.24430239 -0.16373064 0.63100004 1.6202609e-38
0.24221998 -0.16098784 0.63166666 1.6847603e-38
0.24430238 -0.16081855 0.63100004 1.6754329e-38
0.24664043 -0.15965371 0.63100004 1.6938354e-38
0.24234779 -0.15757336 0.63200003 1.7125273e-38
0.24434561 -0.15735173 0.63111115 1.7123834e-38
0.24664043 -0.15732403 0.63100004 1.7214943e-38
0.24157065 -0.15453431 0.63150001 1.7215656e-38
0.24313337 -0.15441196 0.63100004 1.7124537e-38
0.2412381 -0.15173487 0.63128573 1.7215652e-38
0.24313337 -0.15033504 0.63100004 1.7491516e-38
0.24141559 -0.14833216 0.63139999 1.7399693e-38
0.24164939 -0.14553472 0.63139999 1.7585522e-38
0.24313337 -0.14451087 0.63100004 1.7125627e-38
0.24187946 -0.14263988 0.63200003 1.6943758e-38
0.24452336 -0.14230971 0.63157141 1.5742712e-38
0.24741977 -0.14179292 0.63100004 1.7033447e-38
0.250732 -0.14101636 0.63100004 1.7678098e-38
0.25698373 -0.14123985 0.63200003 1.5017075e-38
0.25963673 -0.14109086 0.63133335 1.4467878e-38
0.26261702 -0.14140464 0.63100004 1.4377127e-38
0.26417571 -0.14159879 0.63100004 1.446932e-38
0.24527499 -0.14007317 0.63200003 1.6571764e-38
0.24761674 -0.13948983 0.63200003 1.7587696e-38
0.25054392 -0.13948981 0.63200003 1.7862132e-38
0.25372124 -0.13930607 0.6311667 1.62102e-38
0.25688231 -0.13943489 0.63175005 1.4834492e-38
0.25932544 -0.14007317 0.63200003 1.4376043e-38
0.26195991 -0.13978149 0.63200003 1.4467885e-38
0.25353226 -0.13727827 0.63166672 1.5476253e-38
0.25663248 -0.13727313 0.63200003 1.4743021e-38
0.25874004 -0.13773981 0.63200003 1.4376402e-38
0.2399689 -0.16007966 0.63500005 1.6847597e-38
0.24135193 -0.16041183 0.63400006 1.6940158e-38
0.23928621 -0.1576729 0.63475007 1.6939788e-38
0.24124137 -0.15768835 0.63339996 1.703307e-38
0.2399689 -0.15480468 0.63500005 1.6940149e-38
0.24076559 -0.15514608 0.634 1.712382e-38
0.2399689 -0.15128802 0.63500005 1.7031275e-38
0.2405757 -0.15151492 0.63349998 1.7123824e-38
0.2399689 -0.14835748 0.63500005 1.6940512e-38
0.24076559 -0.14870903 0.634 1.7308215e-38
0.23967479 -0.14513388 0.63500005 1.4732165e-38
0.24076559 -0.14519791 0.634 1.6941598e-38
0.2399689 -0.14249639 0.63500005 1.4085726e-38
0.2410299 -0.14200245 0.63366669 1.4919075e-38
0.24390401 -0.14146334 0.63300002 1.6387345e-38
0.24174379 -0.13973527 0.63400006 1.4179364e-38
0.24428879 -0.13901088 0.634 1.5193869e-38
0.24624945 -0.13912629 0.63300002 1.7588783e-38
0.25973579 -0.13912629 0.63300002 1.4467878e-38
0.26325396 -0.13912629 0.63300002 1.4468247e-38
0.24585105 -0.13722141 0.63500005 1.3167745e-38
0.24766576 -0.13700439 0.634 1.6207302e-38
0.25044087 -0.13697392 0.63385713 1.7036344e-38
0.25289491 -0.13639973 0.63299996 1.6119105e-38
0.25651079 -0.13591284 0.63300002 1.4651544e-38
0.26001757 -0.13664159 0.63339996 1.446823e-38
0.26204658 -0.13706578 0.63319999 1.4651558e-38
0.24787726 -0.13402469 0.63466668 1.4642519e-38
0.25070381 -0.13355823 0.63500005 1.5017784e-38
0.25364104 -0.13347019 0.6338889 1.4743381e-38
0.2568095 -0.13370776 0.63342857 1.4468229e-38
0.26034185 -0.13427444 0.634 1.4468946e-38
0.24820392 -0.13018811 0.63500005 1.3728148e-38
0.25320372 -0.13048115 0.63500005 1.4560786e-38
0.24105377 -0.1630321 0.63600004 1.6570286e-38
0.23838301 -0.15661389 0.63600004 1.6847238e-38
0.23927593 -0.15498094 0.63733333 1.6755408e-38
0.23924908 -0.15147009 0.63700002 1.6847605e-38
0.23460168 -0.14729175 0.63800001 1.6385185e-38
0.23836321 -0.14843248 0.63700002 1.5282094e-38
0.235424 -0.14537609 0.63771433 1.6200421e-38
0.23831075 -0.14592798 0.63633341 1.3807711e-38
0.23914699 -0.14263675 0.6372 1.4911884e-38
0.24099152 -0.13993216 0.63666672 1.5187374e-38
0.24228461 -0.13786972 0.63800001 1.7213157e-38
0.24478631 -0.13694048 0.63733339 1.4726418e-38
0.24623823 -0.13567641 0.63600004 1.3805918e-38
0.2468891 -0.13327175 0.63666672 1.5287163e-38
0.24741651 -0.13039313 0.63600004 1.363559e-38
0.25036219 -0.13039313 0.6360001 1.4283833e-38
0.25212964 -0.13039313 0.63600004 1.4468949e-38
0.23792899 -0.15754923 0.63900006 1.6937992e-38
0.23374104 -0.15437242 0.64050007 1.6753598e-38
0.23569207 -0.15460552 0.64000005 1.6846158e-38
0.23803484 -0.15433207 0.63928568 1.6938369e-38
0.23355858 -0.15129782 0.64000005 1.6754673e-38
0.23521852 -0.15153413 0.64000005 1.6846873e-38
0.23771964 -0.15157284 0.63950008 1.6755406e-38
0.23579808 -0.14870223 0.63900006 1.5924211e-38
0.23792899 -0.14988182 0.63900006 1.6478103e-38
0.23832361 -0.14280422 0.63900006 1.7030551e-38
0.23911284 -0.14044501 0.63900006 1.7769165e-38
0.24107143 -0.13920347 0.63980007 1.7123102e-38
0.24145406 -0.13663593 0.64050007 1.7584445e-38
0.2439156 -0.13636872 0.63980001 1.776847e-38
0.24164256 -0.13437647 0.64100003 1.7862118e-38
0.24444161 -0.13369144 0.64055556 1.7495857e-38
0.24670449 -0.13317639 0.63950002 1.6023994e-38
0.24223633 -0.13141823 0.64100003 1.4369162e-38
0.24481244 -0.13107161 0.64075005 1.3726688e-38
0.24712487 -0.13088775 0.64033341 1.3083847e-38
0.24201953 -0.13280839 0.64200002 1.6393114e-38
