# .PCD v0.7 - Point Cloud Data file format
VERSION 0.7
FIELDS x y z rgb
SIZE 4 4 4 4
TYPE F F F F
COUNT 1 1 1 1
WIDTH 133
HEIGHT 1
VIEWPOINT 0 0 0 1 0 0 0
POINTS 133
DATA ascii
0.097214811 0.13664271 0.64400005 1.7236621e-38
0.10377688 0.15804167 0.64400005 1.8803587e-38
0.092273697 0.13727924 0.64700001 1.3283729e-38
0.095196262 0.13717315 0.64649999 1.6960039e-38
0.09676829 0.13566419 0.64500004 1.714371e-38
0.080038898 0.13983157 0.64500004 1.0156897e-38
0.082520619 0.13956052 0.64571428 9.9732289e-39
0.085681051 0.14086236 0.64700001 1.0156896e-38
0.089876369 0.13966799 0.64700001 9.6037514e-39
0.091674365 0.13966799 0.64700001 1.0520704e-38
0.094671018 0.139668 0.64700001 1.5491018e-38
0.09756735 0.13952406 0.6463334 1.7329893e-38
0.099465668 0.14026517 0.64700001 1.7605765e-38
0.079687744 0.14325109 0.64700001 1.0157257e-38
0.082898572 0.14249055 0.64680004 9.9732233e-39
0.085681051 0.14325109 0.64700001 1.0156903e-38
0.088977367 0.1429525 0.64700001 1.015655e-38
0.091638714 0.14259855 0.64675003 1.0155469e-38
0.094573162 0.1425066 0.64633328 1.3283724e-38
0.097554684 0.14248876 0.64625001 1.7330625e-38
0.10006499 0.1426539 0.64700001 1.7698327e-38
0.082855642 0.1452986 0.64700001 9.8813822e-39
0.085681051 0.14563984 0.64700001 9.8810333e-39
0.088677712 0.14563984 0.64700001 9.9728758e-39
0.091650605 0.14560263 0.64683336 9.9728716e-39
0.094606191 0.1455404 0.64655548 1.1627769e-38
0.097642682 0.14560263 0.64683336 1.6779612e-38
0.09986522 0.14524172 0.64700001 1.7606126e-38
0.10585853 0.14643608 0.64700001 1.8250417e-38
0.085081726 0.14802857 0.64700001 9.7892006e-39
0.089077264 0.1484267 0.64700001 9.973236e-39
0.093472354 0.14802857 0.64700001 9.6059066e-39
0.10605831 0.14802857 0.64700001 1.8435167e-38
0.080287077 0.15220886 0.64700001 9.8810417e-39
0.082444668 0.1523283 0.64700001 9.789558e-39
0.085081726 0.15220886 0.64700001 9.8810417e-39
0.089876369 0.15101451 0.64700001 9.9732247e-39
0.091075033 0.15101451 0.64700001 1.006543e-38
0.094671018 0.15161169 0.64700001 1.1259692e-38
0.097667672 0.15161169 0.64700001 1.7055837e-38
0.099465668 0.15220886 0.64700001 1.8251129e-38
0.10426031 0.15161169 0.64700001 1.8526641e-38
0.10545897 0.15220886 0.64700001 1.8526644e-38
0.080287077 0.15459761 0.64700001 9.7899083e-39
0.082444668 0.15471704 0.64700001 9.6977197e-39
0.085081726 0.15400042 0.64700001 1.0065069e-38
0.094671018 0.15429901 0.64700001 1.291492e-38
0.097630173 0.15453809 0.64675003 1.8068906e-38
0.10066433 0.15471704 0.64700001 1.8435163e-38
0.1037164 0.15485923 0.64660001 1.8527e-38
0.10524165 0.15487373 0.64566666 1.8527362e-38
0.079846159 0.15670609 0.64666671 9.9735835e-39
0.0825992 0.15742053 0.64633328 9.8813892e-39
0.085561186 0.1578224 0.64700001 9.9732149e-39
0.088677704 0.15758353 0.64700001 1.0064703e-38
0.091674365 0.15758353 0.64700001 1.0615024e-38
0.094654761 0.15755647 0.64688891 1.5953077e-38
0.097667672 0.15758353 0.64700001 1.8435523e-38
0.10050812 0.15733933 0.64599997 1.852664e-38
0.10308163 0.15715683 0.64525002 1.8619194e-38
0.10513298 0.1570964 0.64500004 1.8803228e-38
0.083753414 0.15972501 0.64600003 9.6980602e-39
0.085667938 0.1606783 0.64600003 1.0432757e-38
0.088632338 0.16048642 0.64666671 1.1077772e-38
0.091674365 0.16056946 0.64700001 1.595233e-38
0.094431289 0.16045003 0.64700001 1.8436954e-38
0.097554222 0.16038355 0.64625001 1.8527003e-38
0.10040502 0.16015582 0.64533335 1.8711035e-38
0.10274307 0.15947776 0.64500004 1.8711393e-38
0.085322998 0.16333811 0.64520001 1.5031444e-38
0.088495381 0.1632179 0.64566666 1.6687387e-38
0.091674365 0.16355538 0.64700001 1.8344045e-38
0.094328538 0.16355538 0.64700001 1.8527717e-38
0.097516716 0.16270633 0.64600003 1.8527363e-38
0.099235065 0.16257992 0.64550006 1.8619559e-38
0.088486776 0.13431604 0.65000004 1.0053984e-38
0.091256484 0.13383608 0.65000004 1.5210855e-38
0.093905769 0.13431604 0.65000004 1.6866765e-38
0.085834414 0.1370451 0.64966673 9.5093739e-39
0.088441096 0.13664514 0.64966673 9.2295739e-39
0.091206491 0.13635463 0.64899999 1.1991902e-38
0.09415482 0.13613936 0.64840001 1.6959314e-38
0.09601786 0.1362952 0.648 1.7051154e-38
0.085453331 0.13940537 0.648 9.9732233e-39
0.088214517 0.13928574 0.648 1.0063272e-38
0.090015285 0.13868764 0.648 9.6012346e-39
0.10041974 0.13908638 0.648 1.7697239e-38
0.10202043 0.13988385 0.648 1.7973109e-38
0.079018705 0.14236484 0.64840001 1.0065423e-38
0.081611685 0.14347251 0.648 9.8813878e-39
0.085813485 0.14227629 0.648 1.0248375e-38
0.088214517 0.14167818 0.648 1.006471e-38
0.090015285 0.14108007 0.648 9.8799795e-39
0.10081992 0.14108007 0.648 1.7881632e-38
0.10282078 0.14267503 0.648 1.7881994e-38
0.079290904 0.14541627 0.64866668 9.9732317e-39
0.10021966 0.14586493 0.648 1.7605763e-38
0.10322094 0.14526683 0.648 1.7881632e-38
0.10562197 0.14466871 0.648 1.8066029e-38
0.076444581 0.14871494 0.65000004 9.6973581e-39
0.079237409 0.1483078 0.64822221 9.7891992e-39
0.082211941 0.14825736 0.648 9.7891936e-39
0.085213229 0.1489751 0.648 9.6970092e-39
0.087614253 0.14885548 0.648 9.7892118e-39
0.091455899 0.1489751 0.648 9.6980896e-39
0.094417177 0.14905484 0.648 1.0523906e-38
0.097218372 0.14885548 0.648 1.5216594e-38
0.10033971 0.14849661 0.648 1.7697601e-38
0.10322094 0.14825736 0.648 1.8066026e-38
0.10622223 0.14945358 0.648 1.8527366e-38
0.076566257 0.1513585 0.64933336 9.6973623e-39
0.078970551 0.15112828 0.648 9.7891978e-39
0.082211941 0.1506498 0.648 9.8810277e-39
0.085213229 0.15112828 0.648 9.7892062e-39
0.088214517 0.1512479 0.648 9.8810431e-39
0.092416316 0.1512479 0.648 9.8817676e-39
0.10041974 0.15104854 0.648 1.8066022e-38
0.10298084 0.15136752 0.648 1.8618115e-38
0.10622223 0.1506498 0.648 1.8527367e-38
0.076809622 0.15364033 0.648 9.8813948e-39
0.078610398 0.15423845 0.648 9.8813906e-39
0.085693434 0.15447769 0.648 1.0065067e-38
0.088214517 0.15423845 0.648 9.9735919e-39
0.091215797 0.15423842 0.648 9.97288e-39
0.093616828 0.15543465 0.648 9.6045123e-39
0.09601786 0.15543465 0.648 1.7150887e-38
0.10081992 0.15364033 0.648 1.8343685e-38
0.10262069 0.15304223 0.648 1.8526637e-38
0.086413741 0.15663087 0.648 9.8817508e-39
0.09601786 0.16141574 0.648 1.8435523e-38
0.09601786 0.16261196 0.648 1.852736e-38
0.096618116 0.16500439 0.648 1.8619557e-38
0.077165224 0.14654022 0.65100002 9.7899237e-39
