# .PCD v0.7 - Point Cloud Data file format
VERSION 0.7
FIELDS x y z rgb
SIZE 4 4 4 4
TYPE F F F F
COUNT 1 1 1 1
WIDTH 135
HEIGHT 1
VIEWPOINT 0 0 0 1 0 0 0
POINTS 135
DATA ascii
0.020837145 0.06188 0.66300005 4.6354533e-40
0.022766668 0.062605716 0.66400003 4.6354393e-40
0.027233334 0.062700003 0.66500002 5.5466056e-40
0.038633335 0.062700003 0.66500002 3.6003043e-39
0.041166671 0.062700003 0.66500002 6.8239087e-39
0.020837145 0.064405717 0.66300005 4.6354393e-40
0.022766668 0.064502858 0.66400003 4.6354393e-40
0.025333334 0.064600006 0.66500002 3.713497e-40
0.027866669 0.064600006 0.66500002 4.6354673e-40
0.038000003 0.063966669 0.66500002 1.6656646e-39
0.020236192 0.067033336 0.66400003 4.6390266e-40
0.022566669 0.066855557 0.66433334 4.6354393e-40
0.025333334 0.066500001 0.66500002 4.6246633e-40
0.0285 0.066500001 0.66500002 5.5502069e-40
0.034411114 0.066922225 0.66500002 3.7098956e-40
0.034326665 0.07055334 0.66500002 5.5466196e-40
0.036416668 0.070300005 0.66500002 6.4507934e-40
0.047500003 0.071566671 0.66500002 7.2841736e-39
0.049560953 0.071072705 0.66433334 7.2845324e-39
0.051300004 0.070300005 0.66500002 7.4685649e-39
0.044966668 0.074100003 0.66500002 7.284175e-39
0.047030162 0.073603489 0.66433334 7.1923367e-39
0.049140006 0.073181272 0.66433334 7.2845296e-39
0.023433335 0.077900007 0.66500002 8.3016845e-40
0.025544444 0.07747779 0.66500002 6.4721492e-40
0.028753335 0.077393338 0.66500002 8.3016845e-40
0.031033335 0.076633342 0.66500002 1.1035253e-39
0.036100004 0.076633342 0.66500002 4.8031411e-39
0.044966668 0.077266678 0.66500002 7.1923381e-39
0.04686667 0.076000005 0.66500002 7.1001439e-39
0.048766669 0.075366668 0.66500002 7.2841694e-39
0.025257144 0.078928575 0.66300005 9.2093615e-40
0.028457142 0.079680957 0.66400003 2.4875318e-39
0.031033335 0.079166673 0.66500002 3.1353955e-39
0.038211111 0.079588898 0.66500002 7.2845254e-39
0.040322226 0.080011122 0.66500002 7.2841722e-39
0.043446667 0.079673342 0.66500002 7.375649e-39
0.029133335 0.081700005 0.66500002 4.9821583e-39
0.031033335 0.081700005 0.66500002 5.441689e-39
0.040533334 0.081700005 0.66500002 7.3763679e-39
0.043066669 0.081700005 0.66500002 7.1923381e-39
0.029220954 0.05399524 0.66700006 9.2345289e-40
0.031714287 0.053280003 0.66600001 2.9531749e-39
0.034091115 0.053571746 0.66700006 4.617703e-39
0.038114287 0.05399524 0.66700006 6.639886e-39
0.04065524 0.05399524 0.66700006 7.0072336e-39
0.029220954 0.055900954 0.66700006 6.4686319e-40
0.031761907 0.055900954 0.66700006 1.0142206e-39
0.03430286 0.055900954 0.66700006 2.9538979e-39
0.037479054 0.055900957 0.66700006 5.629334e-39
0.04065524 0.055900957 0.66700006 7.007235e-39
0.042560954 0.055900954 0.66700006 7.0072308e-39
0.02350381 0.059077147 0.66700006 3.7170703e-40
0.025621271 0.058653653 0.66700006 3.7170703e-40
0.02857889 0.058427144 0.6668334 4.6318379e-40
0.031761907 0.058441907 0.66700006 4.6283347e-40
0.034290239 0.058419764 0.66675001 1.1978916e-39
0.037469368 0.058427144 0.6668334 4.154218e-39
0.040639766 0.058419764 0.66675007 6.5484093e-39
0.043196194 0.058441907 0.66700006 7.0068651e-39
0.045101907 0.058441907 0.66700006 6.9153841e-39
0.022843096 0.060914051 0.66624999 4.6354393e-40
0.025390318 0.06157127 0.66649997 4.6282366e-40
0.028707024 0.061378449 0.66612494 4.6246493e-40
0.031746034 0.061586674 0.66666669 4.6318379e-40
0.034268573 0.061555874 0.66633326 7.3905322e-40
0.037278097 0.061389767 0.66624993 1.8475546e-39
0.040467434 0.061272006 0.66600001 6.9157428e-39
0.04316397 0.061571274 0.66650003 7.0072266e-39
0.046213575 0.061776906 0.66700006 6.9153855e-39
0.049336832 0.062465087 0.66700006 6.8235654e-39
0.029811431 0.064697146 0.66600001 3.713511e-40
0.031714287 0.064697146 0.66600001 3.713483e-40
0.034251429 0.064697146 0.66600001 4.6318519e-40
0.037105717 0.065014288 0.66600001 1.1074784e-39
0.040594287 0.064697146 0.66600001 6.0867024e-39
0.043180242 0.064770252 0.66675001 6.639879e-39
0.046372384 0.064794295 0.66700006 6.8231913e-39
0.049492627 0.064721674 0.66624999 7.0075923e-39
0.051377147 0.065331429 0.66600001 7.2838177e-39
0.023468573 0.067868575 0.66600001 4.6354393e-40
0.025371429 0.067868575 0.66600001 3.713469e-40
0.028542861 0.067868575 0.66600001 4.6354112e-40
0.031714287 0.067234285 0.66600001 2.7986593e-40
0.033617146 0.067868575 0.66600001 3.7134129e-40
0.037422862 0.067234285 0.66599995 1.3851387e-39
0.040594287 0.067234285 0.66600001 5.5346091e-39
0.043180238 0.067310236 0.66675007 6.456208e-39
0.046372384 0.067335241 0.66700006 7.0075811e-39
0.049474288 0.067234293 0.66600001 7.2841736e-39
0.020947143 0.069824293 0.66650003 4.6354393e-40
0.022857144 0.07047683 0.66666669 4.6318379e-40
0.02538381 0.070440955 0.66633332 4.6318379e-40
0.028542859 0.070405722 0.66599995 4.6353692e-40
0.031714287 0.070405722 0.66599995 3.7133989e-40
0.033617146 0.069137149 0.66600001 3.7098256e-40
0.038184002 0.070405722 0.66600001 2.4950568e-39
0.040604603 0.070423655 0.66616666 6.729911e-39
0.043174285 0.070476197 0.66666669 6.9153925e-39
0.04617881 0.07029929 0.66649997 7.1916179e-39
0.049262863 0.069560014 0.66600001 7.3763693e-39
0.02350381 0.073052384 0.66700006 4.6282366e-40
0.025409525 0.07368762 0.66700006 4.6282506e-40
0.028549684 0.073595718 0.6661666 3.7170283e-40
0.031714287 0.073577151 0.66600001 3.713483e-40
0.034251429 0.073577151 0.66600001 1.0134877e-39
0.037422862 0.073577143 0.66599995 4.0562742e-39
0.040609762 0.073604524 0.66624999 7.1919654e-39
0.04313143 0.073577151 0.66600001 7.283459e-39
0.045668572 0.07294286 0.66600001 7.284175e-39
0.023468573 0.07674858 0.66600001 6.4721492e-40
0.025172383 0.075940646 0.66633338 3.7170703e-40
0.028225716 0.075797155 0.66600001 3.713469e-40
0.031925716 0.075902872 0.66600001 1.1060365e-39
0.034251429 0.076114297 0.66600001 1.9343622e-39
0.037676573 0.075987443 0.66600001 6.1792554e-39
0.040594287 0.076114297 0.66600001 7.2845268e-39
0.043131433 0.076114297 0.66600001 7.2838121e-39
0.045034289 0.075480007 0.66600001 7.2838149e-39
0.031841144 0.079285726 0.66600001 3.5031032e-39
0.034268577 0.079326034 0.66633326 4.8885418e-39
0.037000004 0.079074293 0.66599995 6.7327795e-39
0.040805716 0.078440003 0.66600001 7.3756476e-39
0.043131433 0.078017145 0.66600001 7.3760063e-39
0.032348573 0.081822865 0.66600001 5.7172052e-39
0.03430286 0.081945717 0.66700006 6.1781862e-39
0.037440956 0.081863813 0.66633338 7.1004942e-39
0.026122859 0.056705717 0.66900003 4.6354393e-40
0.027397145 0.056068577 0.66900003 5.5538082e-40
0.036317144 0.054157145 0.66900003 5.8137239e-39
0.023574287 0.057980005 0.66900003 3.713483e-40
0.024848573 0.057980005 0.66900003 4.6282646e-40
0.022057716 0.073569715 0.66940004 3.7170983e-40
0.023574287 0.075820006 0.66900003 5.5537802e-40
0.019840002 0.071040004 0.67200005 4.6354393e-40
