# .PCD v0.7 - Point Cloud Data file format
VERSION 0.7
FIELDS x y z rgb
SIZE 4 4 4 4
TYPE F F F F
COUNT 1 1 1 1
WIDTH 96
HEIGHT 1
VIEWPOINT 0 0 0 1 0 0 0
POINTS 96
DATA ascii
0.085283771 -0.01315011 0.64400005 4.6134543e-39
0.085283771 -0.011961279 0.64400005 4.7052898e-39
0.09457285 -0.027515426 0.6463334 1.5393077e-38
0.092273697 -0.025155067 0.64700001 6.652195e-39
0.09457285 -0.02572572 0.6463334 1.4013755e-38
0.097516716 -0.025712449 0.64600003 1.557639e-38
0.10017018 -0.025404599 0.64575005 1.5852258e-38
0.089277044 -0.021571958 0.64700001 4.8896754e-39
0.091938376 -0.022459401 0.64675003 4.7989316e-39
0.094605573 -0.022750892 0.64655554 8.8594755e-39
0.097491406 -0.022725582 0.64583331 1.539344e-38
0.10037025 -0.022700064 0.64511114 1.5944811e-38
0.10322106 -0.022457816 0.64500004 1.6128843e-38
0.10573046 -0.022100613 0.64500004 1.6313236e-38
0.082955539 -0.019551076 0.64600003 4.7049297e-39
0.085880823 -0.019581342 0.64700001 4.7052884e-39
0.088677712 -0.019780403 0.64700001 4.7052856e-39
0.091603056 -0.019765116 0.64649999 4.4286973e-39
0.094597243 -0.019764962 0.64650005 5.7216053e-39
0.097403273 -0.019726671 0.64525002 1.3646415e-38
0.10035316 -0.019719258 0.64500004 1.6129205e-38
0.10334055 -0.019719258 0.64500004 1.6129562e-38
0.10608895 -0.01960019 0.64500004 1.6496907e-38
0.080038898 -0.015551885 0.64500004 4.5219789e-39
0.082528412 -0.016763574 0.64577776 4.613097e-39
0.085548319 -0.016769443 0.64599997 4.6130998e-39
0.0885709 -0.016775316 0.64622223 4.5216202e-39
0.091485441 -0.016760483 0.64566666 4.4297819e-39
0.094540536 -0.016771609 0.64611113 4.7049395e-39
0.097415775 -0.016751524 0.64533335 1.1529168e-38
0.10035316 -0.016742563 0.64500004 1.6129203e-38
0.10334054 -0.016742563 0.64500004 1.62214e-38
0.10632794 -0.016742563 0.64500004 1.6313955e-38
0.080038898 -0.013765868 0.64500004 4.4297819e-39
0.082428813 -0.013765869 0.64500004 4.6134529e-39
0.085416198 -0.014361207 0.64500004 4.5216202e-39
0.08840359 -0.013765869 0.64500004 4.5216216e-39
0.091390982 -0.013765868 0.64500004 4.4301406e-39
0.094475307 -0.013780096 0.64566666 4.429426e-39
0.097516716 -0.01378721 0.64600003 1.0975995e-38
0.10037878 -0.01376927 0.6451667 1.6130281e-38
0.10342111 -0.013776539 0.64550006 1.6221758e-38
0.10638258 -0.013772982 0.64533335 1.6406149e-38
0.080038898 -0.011979851 0.64500004 4.4297819e-39
0.082428813 -0.010789173 0.64500004 4.6130956e-39
0.085416198 -0.010193834 0.64500004 4.705287e-39
0.08840359 -0.010789173 0.64500004 4.7971239e-39
0.091461681 -0.010796922 0.6455 4.7049325e-39
0.094460279 -0.010798261 0.64555556 5.1648386e-39
0.097491711 -0.010803114 0.64583331 1.2449672e-38
0.10056754 -0.010961009 0.64637494 1.612956e-38
0.10360757 -0.010816437 0.64666665 1.6221399e-38
0.10654712 -0.010810862 0.64633334 1.6405791e-38
0.10931533 -0.011979851 0.64500004 1.6682017e-38
0.080100939 -0.007818073 0.64550006 4.4297833e-39
0.082528412 -0.0072250217 0.64577782 4.4294218e-39
0.085416198 -0.0072171395 0.64500004 4.6134501e-39
0.088465326 -0.0072221127 0.64544445 4.6134529e-39
0.091627449 -0.0072357892 0.64666671 4.3357912e-39
0.094671018 -0.0072395187 0.64700001 7.4725796e-39
0.097591728 -0.0078306478 0.64649999 1.5027174e-38
0.1004246 -0.0074783927 0.64700001 1.6221039e-38
0.10366099 -0.0078367041 0.64700001 1.6313233e-38
0.10600366 -0.0072364043 0.64666671 1.6221759e-38
0.083225451 -0.004438892 0.64500004 4.6130942e-39
0.085416198 -0.0042404458 0.64500004 4.4294232e-39
0.088472731 -0.0042435792 0.6455 4.2443144e-39
0.09146183 -0.004243271 0.64550006 6.0849788e-39
0.094227545 -0.0041255066 0.64560002 1.3090724e-38
0.10066433 -0.0036564092 0.64700001 1.6221404e-38
0.085615359 -0.0020575363 0.64500004 5.4385318e-39
0.088525631 -0.0012654923 0.64588886 8.7571905e-39
0.091532677 -0.0012657101 0.64599997 1.3180759e-38
0.094459452 -0.0012646341 0.64555556 1.5946607e-38
0.096918315 -0.0024582339 0.64600003 1.6037368e-38
0.10054718 -0.0015643308 0.64625001 1.6405427e-38
0.091956824 -0.027628951 0.64900005 1.2908491e-38
0.086078338 -0.024071798 0.65000004 4.7049367e-39
0.088349722 -0.024632871 0.64900005 4.0620868e-39
0.091032006 -0.025927966 0.64840001 6.7382656e-39
0.085505933 -0.02209786 0.64840001 4.7052884e-39
0.088214509 -0.022801515 0.648 4.4301406e-39
0.090615541 -0.023399625 0.648 3.9702457e-39
0.084612966 -0.020409083 0.648 4.7971225e-39
0.10081992 -0.0096431402 0.648 1.61292e-38
0.097818628 -0.0060544922 0.648 1.6039882e-38
0.10081992 -0.0072507081 0.648 1.6128843e-38
0.10322095 -0.0060544922 0.648 1.62214e-38
0.108023 -0.007848816 0.648 1.6498343e-38
0.097458474 -0.0043797898 0.648 1.6038089e-38
0.10001957 -0.0044595376 0.648 1.6037372e-38
0.10332651 -0.0042645512 0.64866668 1.631324e-38
0.10562197 -0.0042601684 0.648 1.6497626e-38
0.098018713 -0.0016683674 0.648 1.6221395e-38
0.099619403 -0.0024658446 0.648 1.6221399e-38
0.10353953 -0.0024734554 0.65000004 1.6405431e-38
