# .PCD v0.7 - Point Cloud Data file format
VERSION 0.7
FIELDS x y z rgb
SIZE 4 4 4 4
TYPE F F F F
COUNT 1 1 1 1
WIDTH 188
HEIGHT 1
VIEWPOINT 0 0 0 1 0 0 0
POINTS 188
DATA ascii
0.13045007 0.071576506 0.62600005 1.9515854e-38
0.1336394 0.071287602 0.62600005 1.8782988e-38
0.13659678 0.071114257 0.62600005 1.7872266e-38
0.13045007 0.073309913 0.62600005 1.9700604e-38
0.13334946 0.073309906 0.62599999 1.9149958e-38
0.13659678 0.073194347 0.62600005 1.8146322e-38
0.12750956 0.076636449 0.62580001 2.0528916e-38
0.13060862 0.076311313 0.62557137 2.0161218e-38
0.13341431 0.076008365 0.62562495 1.9609509e-38
0.13649738 0.076364003 0.62599999 1.8604043e-38
0.12813057 0.079665728 0.62599999 2.0989898e-38
0.13075392 0.079441741 0.62537503 2.0622196e-38
0.13358925 0.079776801 0.62557143 2.0163404e-38
0.13682874 0.079665728 0.62599999 1.8790601e-38
0.12832385 0.082362138 0.62600005 2.1267568e-38
0.13082065 0.082422867 0.625 2.0992779e-38
0.13371539 0.082422867 0.625 2.0441073e-38
0.13664688 0.08244469 0.62516665 1.8793491e-38
0.13972813 0.082554743 0.62600005 1.806206e-38
0.12871043 0.084288143 0.62600005 2.1544514e-38
0.13088979 0.085352749 0.62533331 2.1176829e-38
0.13371539 0.085307263 0.625 2.0168464e-38
0.13661015 0.085307255 0.625 1.8703466e-38
0.13938262 0.085698985 0.62575006 1.81539e-38
0.13064337 0.08814016 0.62600005 2.1270843e-38
0.13331395 0.088309385 0.62583333 1.9804027e-38
0.13700892 0.087973766 0.62550002 1.8429764e-38
0.13953483 0.08814016 0.62600005 1.8154622e-38
0.13165788 0.062049821 0.62900001 1.7137217e-38
0.1369018 0.068436101 0.62900001 1.759784e-38
0.13864978 0.068436101 0.62900001 1.7324497e-38
0.12544288 0.07153248 0.62900001 1.9792071e-38
0.12770557 0.071494363 0.6286667 1.9699876e-38
0.13004518 0.070963837 0.62825 1.9423656e-38
0.13331728 0.070221342 0.62766671 1.8781186e-38
0.1362469 0.069560356 0.62866664 1.7962647e-38
0.1396886 0.070693836 0.62842858 1.7233384e-38
0.14214571 0.071338952 0.62900001 1.7325581e-38
0.12233537 0.073661238 0.62900001 2.03456e-38
0.12485906 0.073753752 0.62880003 2.025304e-38
0.1278557 0.073485427 0.62750006 2.0068298e-38
0.13973695 0.073612854 0.62760007 1.7417055e-38
0.14238288 0.073776074 0.62833333 1.7601092e-38
0.12473664 0.076663584 0.62862504 2.0621461e-38
0.12780491 0.075771891 0.62725008 2.0436718e-38
0.13954374 0.076190948 0.62712502 1.7599287e-38
0.14250177 0.076442063 0.62800002 1.7508894e-38
0.14447634 0.07714466 0.62900001 1.7601447e-38
0.12233537 0.079466946 0.62900001 2.0990616e-38
0.12453326 0.079382718 0.62833333 2.0989897e-38
0.12659283 0.079792991 0.62700003 2.1081734e-38
0.13995132 0.079792991 0.62700003 1.7418132e-38
0.14234027 0.079662204 0.62780005 1.7602165e-38
0.12233537 0.082369804 0.62900001 2.1544506e-38
0.12459952 0.082326561 0.62866664 2.154379e-38
0.12704732 0.082923792 0.6273334 2.1451956e-38
0.14261855 0.082469963 0.62800002 1.7970945e-38
0.14447634 0.08353094 0.62900001 1.7971304e-38
0.12107375 0.086364627 0.62849998 2.2189882e-38
0.12466601 0.085272662 0.62900001 2.2005131e-38
0.12773588 0.08581046 0.62762499 2.1821101e-38
0.14053214 0.085001513 0.62700003 1.8154259e-38
0.14238846 0.085648485 0.62750006 1.8062781e-38
0.14560337 0.085249901 0.62883329 1.8063139e-38
0.14835829 0.085739173 0.62816668 1.8063142e-38
0.11883944 0.087594941 0.62900001 2.2097693e-38
0.12000475 0.08701437 0.62900001 2.2189885e-38
0.124666 0.08701437 0.62900001 2.2189528e-38
0.12816194 0.088175505 0.62900001 2.1822191e-38
0.12944032 0.088760853 0.62766671 2.1546696e-38
0.1364665 0.089052588 0.62700003 1.8429765e-38
0.14053214 0.089052588 0.62700003 1.8154982e-38
0.14244497 0.088579938 0.62775004 1.8246816e-38
0.14556447 0.088128164 0.6286667 1.8063504e-38
0.1479674 0.088327684 0.6273334 1.8063505e-38
0.13030715 0.091529608 0.62811112 2.0354313e-38
0.13352379 0.091296129 0.62750006 1.8520865e-38
0.13655895 0.091762885 0.62857145 1.8246453e-38
0.13956811 0.091498047 0.62788892 1.8063501e-38
0.14253944 0.091537811 0.62816668 1.8247175e-38
0.14509918 0.091175668 0.62833333 1.8063504e-38
0.13340586 0.093981214 0.62900001 1.8338639e-38
0.1357365 0.093981214 0.62900001 1.8246452e-38
0.14039773 0.093981214 0.62900001 1.8155699e-38
0.14261538 0.093906507 0.62849998 1.8247896e-38
0.13032298 0.062247112 0.63100004 1.7131451e-38
0.13363521 0.062441248 0.63100004 1.7047187e-38
0.13689645 0.062895916 0.63166672 1.6956439e-38
0.13047765 0.064653769 0.63175005 1.81369e-38
0.13305886 0.064336747 0.63150001 1.7501681e-38
0.13686033 0.064628117 0.63150001 1.7139745e-38
0.13962787 0.064839765 0.63166666 1.7140824e-38
0.127569 0.068161033 0.63183331 1.9147426e-38
0.13046066 0.067559563 0.63166666 1.8779363e-38
0.13319893 0.06788253 0.63157141 1.8413862e-38
0.13667794 0.067201369 0.6314286 1.750528e-38
0.13992505 0.067319334 0.63160002 1.7140824e-38
0.14245391 0.068230547 0.63139999 1.7141189e-38
0.12223616 0.071039617 0.63150001 2.0251984e-38
0.12506239 0.070983365 0.63100004 1.9791715e-38
0.12740043 0.07010974 0.63100004 1.942365e-38
0.13032298 0.069818534 0.63100004 1.9239622e-38
0.13266101 0.069818534 0.63100004 1.8871942e-38
0.14288993 0.07010974 0.63100004 1.7233386e-38
0.14516543 0.071095861 0.63200003 1.714227e-38
0.11940624 0.074012563 0.63200003 1.9977547e-38
0.12145621 0.073371135 0.63150001 2.0161222e-38
0.12389337 0.072730616 0.63100004 2.0160494e-38
0.1437667 0.072730616 0.63100004 1.7325946e-38
0.14563556 0.073953547 0.63150001 1.741778e-38
0.14739046 0.073953547 0.63150001 1.7418134e-38
0.12174916 0.076692127 0.63125002 2.0529995e-38
0.12389337 0.075642698 0.63100004 2.0529621e-38
0.14579226 0.076071553 0.63133335 1.7693281e-38
0.11940624 0.079845965 0.63200003 2.1082088e-38
0.12089209 0.079394884 0.63120002 2.0898417e-38
0.14563602 0.079199448 0.63150001 1.7786554e-38
0.11940624 0.082762659 0.63200003 2.1451953e-38
0.12127584 0.082669385 0.63128573 2.1452311e-38
0.14568345 0.082424559 0.63120002 1.7879468e-38
0.1485209 0.083257772 0.63133335 1.7879475e-38
0.15078083 0.083214119 0.63100004 1.7879834e-38
0.11940624 0.085096024 0.63200003 2.1820742e-38
0.1215935 0.085454233 0.63120002 2.1913654e-38
0.12272435 0.08729104 0.63100004 2.2189882e-38
0.12728703 0.08923962 0.63160002 2.1913672e-38
0.12775502 0.091571502 0.63160002 2.1730372e-38
0.128315 0.093602479 0.63166672 2.0169916e-38
0.12973846 0.094280042 0.63100004 1.8702015e-38
0.13441455 0.095444873 0.63100004 1.8247168e-38
0.13704485 0.09515366 0.63100004 1.8154979e-38
0.13920084 0.094938084 0.63150001 1.8063507e-38
0.13484059 0.061860152 0.63300002 1.6956074e-38
0.13601331 0.061860152 0.63300002 1.6864602e-38
0.12180594 0.064723156 0.63433337 1.850278e-38
0.12467875 0.064986147 0.63500005 1.8594974e-38
0.12800489 0.064298622 0.63400006 1.8227652e-38
0.13425422 0.065365724 0.63300002 1.7686433e-38
0.11938483 0.067916691 0.63500005 1.887156e-38
0.12232589 0.067330584 0.63500005 1.9054875e-38
0.12477648 0.067742959 0.63475007 1.9147069e-38
0.12787092 0.066569291 0.63333338 1.8870846e-38
0.13425422 0.066534251 0.63300002 1.786649e-38
0.11626037 0.071320847 0.634 1.9424366e-38
0.11863032 0.070161946 0.63411117 1.9332176e-38
0.1215052 0.069959559 0.63440001 1.9699888e-38
0.12420748 0.070127606 0.63380003 1.9791358e-38
0.14761913 0.071433343 0.63500005 1.7142269e-38
0.11585554 0.073777787 0.63500005 1.9700955e-38
0.11827341 0.07349439 0.634 1.9793157e-38
0.12076789 0.072376885 0.63300002 1.9977202e-38
0.14585449 0.072605565 0.63500005 1.7142632e-38
0.14703092 0.072605565 0.63500005 1.7142629e-38
0.11863948 0.076607816 0.63416672 2.0253772e-38
0.14820988 0.076702051 0.63333333 1.7969505e-38
0.15134451 0.076903693 0.63500005 1.7878035e-38
0.11497321 0.08051803 0.63500005 2.0806583e-38
0.11835305 0.079400003 0.63442862 2.0805864e-38
0.14656784 0.080556564 0.63300002 1.7879467e-38
0.14844455 0.079450749 0.63350004 1.7970945e-38
0.15110892 0.07961797 0.63483334 1.7879111e-38
0.11567308 0.082439378 0.634 2.1267563e-38
0.11833682 0.082530223 0.63380003 2.1359397e-38
0.14844455 0.081789643 0.63349998 1.787983e-38
0.15032312 0.081854194 0.634 1.7879831e-38
0.11596673 0.085072711 0.634 2.154452e-38
0.11827394 0.085532494 0.634 2.1728549e-38
0.11626037 0.087706052 0.634 2.2005866e-38
0.12154597 0.088876426 0.634 2.228172e-38
0.12452061 0.089203656 0.63300002 2.2097696e-38
0.12160957 0.091264814 0.63433337 2.2189886e-38
0.12420215 0.091468558 0.63342857 2.2097693e-38
0.12663151 0.09107329 0.63300002 2.2005872e-38
0.12154597 0.093557909 0.634 2.2098778e-38
0.12463842 0.093967035 0.63360006 2.1731439e-38
0.1270891 0.094239168 0.63333333 2.1180806e-38
0.12134025 0.065675519 0.63600004 1.8502781e-38
0.12487511 0.065088488 0.63600004 1.8594614e-38
0.12094749 0.067240931 0.63600004 1.8779367e-38
0.11603798 0.076829121 0.63600004 2.0161929e-38
0.11603798 0.079177253 0.63600004 2.0621832e-38
0.11896906 0.089384392 0.64100003 2.2005503e-38
0.11635645 0.091040999 0.64100003 2.1914399e-38
0.11878234 0.091371186 0.63999999 2.2189893e-38
0.12072878 0.091346748 0.63900006 2.2189889e-38
0.11904609 0.093778811 0.63950002 2.2282449e-38
0.12072878 0.093705952 0.63900006 2.2098774e-38
0.11772738 0.092368178 0.64200002 2.2190256e-38
