# .PCD v0.7 - Point Cloud Data file format
VERSION 0.7
FIELDS x y z rgb
SIZE 4 4 4 4
TYPE F F F F
COUNT 1 1 1 1
WIDTH 828
HEIGHT 1
VIEWPOINT 0 0 0 1 0 0 0
POINTS 828
DATA ascii
0.0093886079 0.019855762 0.63500005 1.7143715e-38
0.0093886079 0.022200197 0.63500005 1.7144074e-38
0.0058593173 0.025716851 0.63500005 1.7236624e-38
0.0082121771 0.025716851 0.63500005 1.7419936e-38
0.0093886079 0.025716851 0.63500005 1.741922e-38
0.0052623376 0.028601818 0.63400006 1.7327742e-38
0.0070246672 0.028017094 0.634 1.7419578e-38
0.0046828869 0.030405721 0.63500005 1.7327739e-38
-0.039028548 -0.013027593 0.63800001 1.4191277e-38
-0.0094788456 0.0052276216 0.63800001 1.419344e-38
-0.0082968576 0.0052276216 0.63800001 1.4654781e-38
-0.0097743422 0.010821961 0.63800001 2.1190103e-38
-0.008001361 0.010821961 0.63800001 1.9899039e-38
-0.01006984 0.013471911 0.63800001 2.2664868e-38
-0.0079028616 0.013668203 0.63800001 2.2757769e-38
0.0052960049 0.012883034 0.63800001 1.7050794e-38
-0.010513085 0.016563522 0.63800001 2.2664138e-38
-0.0082968576 0.016416302 0.63800001 2.2756689e-38
0.0052960049 0.016416302 0.63800001 1.6959323e-38
0.007068987 0.016416302 0.63800001 1.7051524e-38
-0.01006984 0.019360691 0.63800001 2.2757408e-38
-0.0082968576 0.019360691 0.63800001 2.2757051e-38
0.0023410346 0.019949568 0.63800001 1.7327016e-38
0.0052960049 0.019360691 0.63800001 1.7327025e-38
0.007659981 0.019360691 0.63800001 1.7143359e-38
-0.0010079314 0.022501374 0.63800001 1.8889994e-38
0.0017500407 0.022305081 0.63800001 1.7419211e-38
0.0048527592 0.022452302 0.63800001 1.7419931e-38
0.0076513588 0.022281157 0.63733333 1.7236264e-38
-0.0010066604 0.025404647 0.63700008 1.787838e-38
0.0017500406 0.024660593 0.63800001 1.7419572e-38
0.0050830226 0.024974639 0.63600004 1.7236621e-38
0.0074395877 0.024974639 0.63600004 1.7328458e-38
-0.018934749 0.029371615 0.63800001 2.294072e-38
-0.017752761 0.029371615 0.63800001 2.294036e-38
-0.0094788456 0.028782737 0.63800001 2.3217669e-38
-0.0082968576 0.028193861 0.63800001 2.3218753e-38
-0.00061201089 0.028105477 0.63600004 1.7511412e-38
0.0044039916 0.027854305 0.63700002 1.7328102e-38
0.007068987 0.027016103 0.63800001 1.7328102e-38
-0.010266838 0.03211971 0.63800001 2.2942187e-38
-0.0082968576 0.031727128 0.63800001 2.137634e-38
-0.0015989254 0.031334542 0.63800001 1.7512131e-38
0.0011554132 0.032214701 0.63600004 1.7512489e-38
0.0035119788 0.031040639 0.63600004 1.7419575e-38
-0.0012049294 0.035260394 0.63800001 1.7695451e-38
0.0017445546 0.03456283 0.63600004 1.7603609e-38
-0.00061393547 0.038204782 0.63800001 1.7603251e-38
-0.00041693743 0.040364005 0.63800001 1.7511413e-38
-2.2941418e-05 0.042326927 0.63800001 1.7602891e-38
-0.0077058636 0.047037952 0.63800001 1.7235542e-38
-0.00061393541 0.047037952 0.63800001 1.7419576e-38
-0.021670466 0.048556682 0.63733333 2.3402427e-38
-0.019722743 0.049000878 0.63800001 2.2852154e-38
-0.017752761 0.049982339 0.63800001 1.8889985e-38
-0.014206798 0.050571218 0.63800001 1.6496547e-38
-0.0094788456 0.050571218 0.63800001 1.7235195e-38
-0.0082881879 0.049340621 0.63733333 1.7327383e-38
-0.0035689056 0.048215706 0.63800001 1.7511775e-38
-0.01302481 0.051748976 0.63800001 1.6772775e-38
-0.01006984 0.051748976 0.63800001 1.7235193e-38
-0.07305713 -0.033204846 0.64100003 1.3915777e-38
-0.071275808 -0.033204846 0.64100003 1.419164e-38
-0.070682034 -0.031429905 0.64100003 1.4007249e-38
-0.067607529 -0.029608702 0.64000005 1.3915771e-38
-0.060587894 -0.02492179 0.64100003 1.4098363e-38
-0.057025257 -0.021963555 0.64100003 1.4005816e-38
-0.051087525 -0.019596968 0.64100003 1.4007249e-38
-0.051087525 -0.017822027 0.64100003 1.3363665e-38
-0.049108282 -0.017427595 0.64100003 1.3914328e-38
-0.046290074 -0.01603009 0.64033335 1.3914693e-38
-0.043825082 -0.015407216 0.63900006 1.4282751e-38
-0.04574357 -0.013680499 0.64100003 1.5477312e-38
-0.043351796 -0.013674933 0.64075005 1.4005806e-38
-0.041084412 -0.01344802 0.63933337 1.3731383e-38
-0.04574357 -0.010722265 0.64100003 2.1004988e-38
-0.04333511 -0.0107139 0.64050007 1.8332808e-38
-0.040323399 -0.01070182 0.63977784 1.5018133e-38
-0.03760992 -0.010393908 0.63900006 1.4006166e-38
-0.04574357 -0.0077640302 0.64100003 2.2941439e-38
-0.043351796 -0.0077607716 0.64075005 2.2757764e-38
-0.040137261 -0.007877145 0.64060009 2.081879e-38
-0.037343159 -0.0077453991 0.63950008 1.7134247e-38
-0.034623381 -0.0076285587 0.63960004 1.4282376e-38
-0.031624816 -0.0075506642 0.63966674 1.4099079e-38
-0.029665347 -0.0071611931 0.64000005 1.3824294e-38
-0.045149796 -0.0053974418 0.64100003 2.2849615e-38
-0.043368477 -0.0053974418 0.64100003 2.2941092e-38
-0.040051572 -0.0046354188 0.64085716 2.3033269e-38
-0.037411284 -0.004802681 0.64066672 2.2478997e-38
-0.03445014 -0.004803719 0.64077783 1.9621725e-38
-0.031476639 -0.004802681 0.64066672 1.5569861e-38
-0.028475739 -0.0047972598 0.63988894 1.4374227e-38
-0.025505684 -0.004206161 0.63975006 1.4007609e-38
-0.022839263 -0.003910799 0.63975 1.4007974e-38
-0.019572115 -0.0036140243 0.63950002 1.4192362e-38
-0.039687082 -0.0014925724 0.64100003 2.2940726e-38
-0.037119493 -0.0012558852 0.64075005 2.294072e-38
-0.03431344 -0.0011080019 0.64100003 2.2941069e-38
-0.031493016 -0.0012559136 0.64100003 2.2387888e-38
-0.028489955 -0.0012545947 0.64022225 1.9346554e-38
-0.02551542 -0.0012539541 0.64000005 1.612159e-38
-0.022547476 -0.0012535313 0.63988894 1.4098716e-38
-0.019582009 -0.0012533199 0.63983339 1.4283833e-38
-0.016765866 -0.00091496576 0.639 1.4192001e-38
-0.013637145 -7.2393166e-05 0.63900006 1.4283483e-38
-0.011861384 -7.2393166e-05 0.63900006 1.437604e-38
-0.039212067 0.001702321 0.64100003 2.2940373e-38
-0.037402015 0.0017009932 0.64050007 2.2848888e-38
-0.034417078 0.001700262 0.64016676 2.2848886e-38
-0.0314564 0.0017005601 0.64025009 2.2848515e-38
-0.028479652 0.0016996654 0.64000005 2.2665564e-38
-0.02551542 0.0016996653 0.64000005 2.1926909e-38
-0.022551186 0.0016996654 0.64000005 1.8791606e-38
-0.019579533 0.0016992323 0.63975006 1.4650437e-38
-0.016605714 0.0016982025 0.63933331 1.3915768e-38
-0.013637145 0.0016970095 0.63900006 1.4283836e-38
-0.040399611 0.005449418 0.64100003 2.2941449e-38
-0.037253786 0.0048895744 0.64000005 2.2940367e-38
-0.034414094 0.0046538874 0.64011115 2.2940363e-38
-0.031452227 0.0046541891 0.6401667 2.2756322e-38
-0.028479652 0.0046532843 0.64000005 2.2756337e-38
-0.02552191 0.0046548042 0.6401667 2.2665572e-38
-0.022555308 0.0046542976 0.64011115 2.238825e-38
-0.019586952 0.0046532848 0.64000005 2.0635497e-38
-0.016614681 0.0046508615 0.63966674 1.7135344e-38
-0.013637144 0.004646014 0.639 1.4742999e-38
-0.011387847 0.0048819343 0.63900006 1.4191999e-38
-0.0071371733 0.0052440087 0.64000005 1.5392705e-38
-0.0055475668 0.0054324144 0.63900006 1.6313579e-38
-0.039212067 0.0076187896 0.64100003 2.2940361e-38
-0.037402015 0.0076128468 0.64050007 2.2940008e-38
-0.034443963 0.0076151355 0.64066672 2.2940363e-38
-0.031493016 0.00761879 0.64100003 2.2847804e-38
-0.028524153 0.0076187891 0.64100003 2.2847814e-38
-0.025555287 0.00761879 0.64100003 2.2756335e-38
-0.022575295 0.0076148272 0.64066672 2.2664142e-38
-0.019586954 0.007606904 0.64000005 2.275633e-38
-0.01661901 0.0076053846 0.63983339 2.2295349e-38
-0.013637145 0.0075950185 0.63900006 1.9254378e-38
-0.010677543 0.0075950189 0.639 1.6030497e-38
-0.0077207293 0.0075977594 0.63925004 1.5297992e-38
-0.0047620633 0.0076004998 0.63950008 1.6497609e-38
-0.0019972923 0.0077952729 0.63933343 1.6682001e-38
-0.037430748 0.0093937302 0.64100003 2.2940363e-38
-0.034461882 0.010577024 0.64100003 2.2939993e-38
-0.031493016 0.010577024 0.64100003 2.2755966e-38
-0.028524151 0.010577024 0.64100003 2.2664131e-38
-0.025258401 0.010872847 0.64100003 2.293999e-38
-0.022579005 0.010573356 0.64077777 2.2664488e-38
-0.019596847 0.010565717 0.64033335 2.2572305e-38
-0.016637767 0.010569691 0.64055556 2.2573374e-38
-0.013648279 0.010552273 0.63950008 2.2757042e-38
-0.011387847 0.010308104 0.63900006 2.1835115e-38
-0.0071260212 0.0099542225 0.63900006 1.6862044e-38
-0.0047583398 0.010544023 0.639 1.7324114e-38
-0.001206826 0.010547895 0.6392222 1.6865671e-38
0.0017555268 0.011151249 0.64000005 1.7050065e-38
0.0035285447 0.011723625 0.63900006 1.7050788e-38
-0.034461882 0.014126906 0.64100003 2.2664129e-38
-0.031493016 0.014126906 0.64100003 2.2571223e-38
-0.028524155 0.013653588 0.64100003 2.2571931e-38
-0.025555287 0.013535259 0.64100003 2.2664485e-38
-0.02258086 0.013531585 0.64083338 2.2664491e-38
-0.019602256 0.01352424 0.64050007 2.2663776e-38
-0.016644673 0.013531585 0.64083338 2.2663777e-38
-0.013648279 0.013503585 0.63950002 2.2664142e-38
-0.011861384 0.013493028 0.63900006 2.2664156e-38
-0.0071260212 0.012903227 0.63900006 2.2297157e-38
-0.0047583398 0.013493028 0.639 2.146671e-38
-0.00120683 0.013500066 0.63933343 1.8611239e-38
0.0017541551 0.013504047 0.63950002 1.7141177e-38
0.0035285447 0.013493028 0.63900006 1.7050429e-38
-0.028049136 0.016256835 0.64100003 2.2480106e-38
-0.02554231 0.016484609 0.64066672 2.2572289e-38
-0.022562932 0.016475724 0.64033335 2.2571941e-38
-0.019602101 0.016480012 0.64050007 2.2571938e-38
-0.016636945 0.016481237 0.64055556 2.2663773e-38
-0.013640855 0.016446013 0.63916677 2.275597e-38
-0.011861384 0.015262431 0.63900006 2.2755977e-38
-0.0071260207 0.016442033 0.63900006 2.2757046e-38
-0.0047583398 0.016442033 0.639 2.2757042e-38
-0.0012068221 0.016444689 0.6391111 2.1928394e-38
0.0017527837 0.016442033 0.639 1.8521933e-38
0.0035285447 0.016442033 0.63900006 1.732594e-38
0.0076719872 0.017621635 0.63900006 1.7051171e-38
-0.034461882 0.020043375 0.64100003 2.2663775e-38
-0.03208679 0.020043375 0.64100003 2.2663407e-38
-0.027930379 0.019451728 0.64100003 2.275597e-38
-0.025525618 0.019429199 0.64025003 2.2755603e-38
-0.022545621 0.01941617 0.63983339 2.2663416e-38
-0.019586954 0.019421384 0.64000005 2.2571579e-38
-0.016610352 0.019406056 0.63950008 2.2571941e-38
-0.013637145 0.019391038 0.63900006 2.2572301e-38
-0.011861384 0.019391038 0.63900006 2.2664856e-38
-0.0071260212 0.019391038 0.63900006 2.2756693e-38
-0.0047583398 0.019391036 0.639 2.2848892e-38
-0.001206818 0.019391038 0.639 2.128414e-38
0.0015554769 0.019194437 0.63900006 1.7970572e-38
0.0035285447 0.019391038 0.63900006 1.7418856e-38
-0.03950895 0.022705786 0.64100003 2.2755956e-38
-0.037232824 0.023198826 0.64100003 2.2480457e-38
-0.034461882 0.022409962 0.64100003 2.2571938e-38
-0.031493016 0.022409962 0.64100003 2.2755965e-38
-0.028524153 0.022409964 0.64100003 2.275597e-38
-0.025535816 0.022392483 0.64050007 2.284745e-38
-0.022551596 0.022375412 0.64000005 2.2755618e-38
-0.019576753 0.02236335 0.63966674 2.2663769e-38
-0.016602725 0.022348018 0.6392222 2.2755604e-38
-0.013637144 0.022340043 0.639 2.2664135e-38
-0.010677543 0.022340039 0.639 2.284852e-38
-0.0077179424 0.022340039 0.639 2.3124032e-38
-0.0047583398 0.022340039 0.639 2.2848903e-38
-0.0016014315 0.02194684 0.63900006 2.0455129e-38
0.0035285447 0.021160439 0.63900006 1.7328097e-38
-0.048712436 0.025959844 0.64100003 2.2663776e-38
-0.04633734 0.02566402 0.64100003 2.2572302e-38
-0.043368477 0.025959844 0.64100003 2.2480462e-38
-0.039805837 0.025368197 0.64100003 2.2571929e-38
-0.037416384 0.025358072 0.64075005 2.2663419e-38
-0.034435 0.025347948 0.64050007 2.2663783e-38
-0.031468451 0.025347948 0.64050007 2.2848171e-38
-0.028501904 0.025347948 0.64050001 2.2756336e-38
-0.025525618 0.025338285 0.64025003 2.2847806e-38
-0.022557678 0.025335064 0.6401667 2.2755609e-38
-0.01956423 0.025298709 0.63925004 2.2755963e-38
-0.016605714 0.025301928 0.63933331 2.284815e-38
-0.013637145 0.025289044 0.63900006 2.2848162e-38
-0.010677543 0.025289044 0.639 2.2940361e-38
-0.0077179419 0.025289044 0.63900006 2.3124757e-38
-0.0047583398 0.025289046 0.639 2.165256e-38
-0.0023906587 0.025878847 0.63900006 1.7971284e-38
0.0017527837 0.025878847 0.63900006 1.7419575e-38
0.0035285447 0.025289046 0.63900006 1.7236264e-38
-0.058806576 0.028326431 0.64100003 2.2389707e-38
-0.04930621 0.028918078 0.64100003 2.2571939e-38
-0.045149796 0.029509725 0.64100003 2.2848163e-38
-0.043962251 0.028918078 0.64100003 2.2756332e-38
-0.040251166 0.028178519 0.64100003 2.2755609e-38
-0.037372354 0.02828224 0.64000005 2.2664136e-38
-0.034408119 0.028282238 0.64000005 2.275597e-38
-0.031443886 0.028282242 0.64000005 2.2756344e-38
-0.028479656 0.028282238 0.64000005 2.2756339e-38
-0.025508931 0.028274873 0.63983339 2.2847809e-38
-0.022527901 0.028252579 0.63933337 2.2755969e-38
-0.019674731 0.028002132 0.63900006 2.2848525e-38
-0.016448766 0.028090604 0.639 2.2848529e-38
-0.013637145 0.028238051 0.639 2.3032197e-38
-0.011015783 0.028069539 0.639 2.3124754e-38
-0.0071371733 0.02828224 0.64000005 2.2390813e-38
-0.0047626826 0.028263215 0.63955557 1.9626826e-38
-0.0014047483 0.028442323 0.63916665 1.7419573e-38
0.0017527839 0.028238053 0.639 1.7419578e-38
0.0035285447 0.027058449 0.63900006 1.7235908e-38
-0.049306206 0.031284668 0.64100003 2.2848162e-38
-0.045149796 0.030693021 0.64100003 2.2848162e-38
-0.043962251 0.030693021 0.64100003 2.2848166e-38
-0.039212067 0.031284668 0.64100003 2.2756328e-38
-0.03740155 0.031260725 0.64050007 2.2664493e-38
-0.034417078 0.031244149 0.6401667 2.2755969e-38
-0.031443886 0.031235859 0.64000005 2.2940008e-38
-0.028472237 0.031227572 0.63983339 2.2939647e-38
-0.02551542 0.031235861 0.64000005 2.2939645e-38
-0.02252499 0.031641837 0.63925004 2.2940003e-38
-0.019556347 0.031776849 0.639 2.30322e-38
-0.016596746 0.031776853 0.639 2.3124393e-38
-0.013637145 0.031776857 0.639 2.3216953e-38
-0.01146677 0.030990453 0.63900006 2.3309517e-38
-0.0071297386 0.031792816 0.63933337 1.9809061e-38
-0.0047608223 0.031792812 0.63933331 1.7511405e-38
-0.0010095113 0.031973455 0.639 1.7512491e-38
0.0020487439 0.031481955 0.63900006 1.7419935e-38
-0.051087525 0.035426196 0.64100003 2.1103328e-38
-0.049293544 0.034233689 0.64083338 2.3032566e-38
-0.039212067 0.034242902 0.64100003 2.2756323e-38
-0.037430748 0.034242902 0.64100003 2.2755603e-38
-0.034449939 0.034231439 0.64077783 2.2663766e-38
-0.031443886 0.034189481 0.64000005 2.2664135e-38
-0.028479652 0.034189478 0.64000005 2.2756332e-38
-0.02551542 0.034189481 0.64000005 2.294036e-38
-0.02254642 0.034519404 0.63985723 2.3032197e-38
-0.019556347 0.03472586 0.63900006 2.3215871e-38
-0.016596748 0.034725856 0.639 2.3216234e-38
-0.013637145 0.03472586 0.63900006 2.3309507e-38
-0.010677543 0.03472586 0.639 2.1837296e-38
-0.0077235177 0.034753032 0.63950002 1.7691837e-38
-0.0047626812 0.034752876 0.63950008 1.7511779e-38
-0.001206818 0.034607898 0.63900006 1.7695809e-38
-0.049229287 0.036552377 0.64000005 2.1193728e-38
-0.039212067 0.037792783 0.64100003 2.2848171e-38
-0.037430748 0.037792783 0.64100003 2.2939647e-38
-0.034461882 0.037792783 0.64100003 2.2755969e-38
-0.031476948 0.037773438 0.64066672 2.2755974e-38
-0.028489748 0.037747338 0.64022225 2.2756695e-38
-0.025508931 0.037723999 0.63983339 2.312439e-38
-0.022531403 0.037700452 0.63944447 2.321659e-38
-0.019576443 0.037713863 0.63966674 2.330878e-38
-0.016610971 0.037707824 0.63955557 2.3308782e-38
-0.013640855 0.03768469 0.63916665 2.3218044e-38
-0.010677543 0.037674863 0.639 1.9533544e-38
-0.0077216588 0.037694823 0.63933343 1.695752e-38
-0.0047593731 0.037681207 0.6391111 1.7327744e-38
-0.0016803544 0.037203021 0.63900006 1.7603254e-38
0.0011608633 0.036495261 0.63900006 1.7695088e-38
-0.039212067 0.040159371 0.64100003 2.3032573e-38
-0.037430748 0.040751018 0.64100003 2.2757062e-38
-0.034453232 0.04074027 0.64083338 2.284853e-38
-0.031468451 0.040718772 0.64050007 2.3032198e-38
-0.028494798 0.04070833 0.64033341 2.3124397e-38
-0.025505684 0.040671319 0.63975006 2.3216585e-38
-0.022522131 0.040634312 0.63916665 2.3309147e-38
-0.019563768 0.040639531 0.63925004 2.3401342e-38
-0.016613444 0.040666252 0.63966674 2.331022e-38
-0.013658486 0.040687442 0.64000005 2.1468873e-38
-0.010680638 0.040634613 0.63916671 1.7599996e-38
-0.0077235177 0.040655654 0.63950002 1.7049719e-38
-0.0047583398 0.04062387 0.639 1.7327023e-38
-0.0019960452 0.040820468 0.63900006 1.7511769e-38
-0.036836974 0.042525958 0.64100003 2.3033286e-38
-0.033635575 0.042875547 0.64033341 2.3032923e-38
-0.031419162 0.043606352 0.63950008 2.3216585e-38
-0.02846482 0.043617714 0.63966668 2.3032921e-38
-0.025475552 0.043572873 0.639 2.3216591e-38
-0.022515951 0.043572873 0.639 2.3308429e-38
-0.019556347 0.043572873 0.639 2.3400992e-38
-0.016602313 0.043587614 0.63922226 2.2757799e-38
-0.01364797 0.043606352 0.63949996 1.8888553e-38
-0.010679606 0.043580249 0.6391111 1.7048634e-38
-0.0077216588 0.043595295 0.63933343 1.7141913e-38
-0.0047583403 0.043572873 0.639 1.7511416e-38
-0.0017987384 0.043572873 0.639 1.7603249e-38
-0.027251313 0.045932077 0.63900006 2.3124763e-38
-0.02547555 0.04652188 0.63900006 2.3124754e-38
-0.022515951 0.046521876 0.639 2.3308788e-38
-0.019556347 0.046521876 0.63900006 2.3309875e-38
-0.016596748 0.046521876 0.639 2.0824258e-38
-0.013637145 0.04652188 0.63900006 1.7231586e-38
-0.010677543 0.046521876 0.639 1.6957519e-38
-0.0077179414 0.045932077 0.63900006 1.7143348e-38
-0.0047583398 0.046521876 0.639 1.7511772e-38
-0.0019960452 0.046325278 0.63900006 1.7603249e-38
-0.018964428 0.048291277 0.63900006 2.2668843e-38
-0.016258506 0.049302362 0.639 1.815208e-38
-0.013518761 0.049234957 0.63900006 1.6496905e-38
-0.010825523 0.049323428 0.639 1.6957525e-38
-0.007131597 0.048918866 0.63950002 1.7327741e-38
-0.0053502601 0.048881076 0.63900006 1.7419938e-38
-0.011861384 0.051830083 0.63900006 1.6957885e-38
-0.083540432 -0.03692675 0.64400005 1.4280225e-38
-0.081154227 -0.035143502 0.64400005 1.5569145e-38
-0.079364568 -0.034549087 0.64400005 1.5018139e-38
-0.076978356 -0.033954669 0.64400005 1.4190557e-38
-0.074558727 -0.034046739 0.64200002 1.4007251e-38
-0.079364568 -0.031577006 0.64400005 2.0543312e-38
-0.076620422 -0.031458121 0.64400005 1.6766577e-38
-0.073527917 -0.031597454 0.64200002 1.4189481e-38
-0.071387 -0.030886369 0.64200002 1.4190563e-38
-0.075665943 -0.028842691 0.64400005 2.12805e-38
-0.073399045 -0.028604925 0.64400005 1.9069629e-38
-0.070295207 -0.028554341 0.6428889 1.5662771e-38
-0.067328818 -0.027966091 0.64300001 1.4190191e-38
-0.065047324 -0.027416091 0.64400005 1.3639902e-38
-0.075188704 -0.025632843 0.64400005 2.2387898e-38
-0.073200203 -0.025830982 0.64400005 2.2387179e-38
-0.070177659 -0.025751729 0.64400005 2.0545107e-38
-0.067433529 -0.025632843 0.64400005 1.7595974e-38
-0.064450771 -0.025632843 0.64400005 1.4649007e-38
-0.062064562 -0.025038429 0.64400005 1.3912897e-38
-0.075188704 -0.022066347 0.64400005 2.2296435e-38
-0.073279738 -0.022422997 0.64400005 2.2387904e-38
-0.070416287 -0.022660762 0.64400005 2.2387545e-38
-0.067433529 -0.022660764 0.64400005 2.183547e-38
-0.06436222 -0.022630716 0.64311111 1.9623148e-38
-0.061309237 -0.022602735 0.64233333 1.6398515e-38
-0.05901726 -0.022353362 0.64200002 1.4373495e-38
-0.05533012 -0.02140525 0.64200002 1.4005817e-38
-0.052951321 -0.02140525 0.64200002 1.4099087e-38
-0.075188704 -0.019688684 0.64400005 2.247975e-38
-0.073399052 -0.019688684 0.64400005 2.2479753e-38
-0.070416294 -0.019688684 0.64400005 2.2387919e-38
-0.067329749 -0.019658113 0.64300001 2.2388628e-38
-0.064250611 -0.019627539 0.64200002 2.2388973e-38
-0.061277114 -0.019627541 0.64200002 2.2018034e-38
-0.058303613 -0.019627539 0.64200002 1.8423892e-38
-0.05533012 -0.019627541 0.64200002 1.483302e-38
-0.052951325 -0.019627541 0.64200002 1.4282035e-38
-0.078768015 -0.015527773 0.64400005 2.2664138e-38
-0.075984105 -0.016518464 0.64400005 2.2480451e-38
-0.073399045 -0.016716605 0.64400005 2.2571575e-38
-0.070368096 -0.01670507 0.64355564 2.2480106e-38
-0.067259319 -0.016673958 0.64233333 2.2388278e-38
-0.064250611 -0.016664691 0.64200002 2.2388625e-38
-0.061277118 -0.016664691 0.64200002 2.2572654e-38
-0.058303613 -0.016664691 0.64200002 2.2296047e-38
-0.055330124 -0.016664691 0.64200002 2.0544375e-38
-0.052505296 -0.01651655 0.64200002 1.7319365e-38
-0.04958136 -0.015874598 0.64200002 1.53851e-38
-0.079364568 -0.013744526 0.64400005 2.2571939e-38
-0.07638181 -0.013744526 0.64400005 2.2571933e-38
-0.073399052 -0.013744526 0.64400005 2.2572294e-38
-0.070416279 -0.013744527 0.64400005 2.2571933e-38
-0.067329749 -0.013723183 0.64300001 2.2480105e-38
-0.064250611 -0.013701841 0.64200002 2.238827e-38
-0.061277114 -0.01370184 0.64200002 2.229679e-38
-0.058303613 -0.01370184 0.64200002 2.2480099e-38
-0.05533012 -0.01370184 0.64200002 2.2664126e-38
-0.052356627 -0.013701841 0.64200002 2.2019476e-38
-0.049383126 -0.013701841 0.64200002 1.9529497e-38
-0.047599029 -0.013701841 0.64200002 1.7317957e-38
-0.079066291 -0.011069654 0.64400005 2.2479741e-38
-0.076381803 -0.010772448 0.64400005 2.2479743e-38
-0.073399045 -0.010772447 0.64400005 2.2387912e-38
-0.070416287 -0.010772448 0.64400005 2.2480098e-38
-0.067398943 -0.010766871 0.64366668 2.2480105e-38
-0.064250611 -0.010738991 0.64200002 2.2571949e-38
-0.061277118 -0.010738991 0.64200002 2.2480102e-38
-0.058303613 -0.01073899 0.64200002 2.2571938e-38
-0.055330124 -0.010738991 0.64200002 2.2480464e-38
-0.052356619 -0.010738991 0.64200002 2.2664136e-38
-0.049383122 -0.010738991 0.64200002 2.2848883e-38
-0.047599029 -0.010738991 0.64200002 2.2295721e-38
-0.073518358 -0.0074437177 0.64400005 2.2479027e-38
-0.070018589 -0.0076022279 0.64400005 2.2571224e-38
-0.067433529 -0.0072059506 0.64400005 2.2571587e-38
-0.064500295 -0.0073429048 0.64300007 2.2571593e-38
-0.061277114 -0.0077761421 0.64200002 2.2663769e-38
-0.058303613 -0.0077761426 0.64200002 2.2571932e-38
-0.05533012 -0.0077761421 0.64200002 2.2572659e-38
-0.052550368 -0.0075248531 0.64228576 2.2664503e-38
-0.049383126 -0.0077761421 0.64200002 2.2756697e-38
-0.047599029 -0.0077761421 0.64200002 2.2849241e-38
-0.041652039 -0.0071835723 0.64200002 2.3215152e-38
-0.072802499 -0.0036394552 0.64400005 2.2387908e-38
-0.069819734 -0.0042338711 0.64400005 2.2388268e-38
-0.067433529 -0.0042338711 0.64400005 2.2479749e-38
-0.064196132 -0.0044821948 0.64314288 2.247975e-38
-0.061309237 -0.0048151766 0.64233333 2.2480464e-38
-0.058303613 -0.004813293 0.64200002 2.2572291e-38
-0.055330124 -0.0048132925 0.64200002 2.2572658e-38
-0.052228801 -0.0046670241 0.64225006 2.2756686e-38
-0.049408454 -0.0048151766 0.64233333 2.2848881e-38
-0.046749461 -0.0046439869 0.64200002 2.2849252e-38
-0.043436132 -0.0036281527 0.64200002 2.2848895e-38
-0.041652039 -0.0054058624 0.64200002 2.3032928e-38
-0.073399052 -0.0012617914 0.64400005 2.2387898e-38
-0.070267148 -0.0012617916 0.64400005 2.2296428e-38
-0.067433529 -0.0012617916 0.64400005 2.2480108e-38
-0.064450771 -0.0012617916 0.64400005 2.2663779e-38
-0.061404992 -0.00125987 0.64333338 2.2664139e-38
-0.05836498 -0.0012583587 0.6426667 2.2664496e-38
-0.055330124 -0.0012578729 0.64200002 2.2940361e-38
-0.052356619 -0.0012578729 0.64200002 2.2849243e-38
-0.049408462 -0.001258526 0.64233333 2.3032553e-38
-0.046409629 -0.001257873 0.64200002 2.303292e-38
-0.043436136 -0.0012578729 0.64200002 2.2941085e-38
-0.04135469 -0.00096158794 0.64200002 2.3124401e-38
-0.03808384 -0.0012578729 0.64200002 2.2941083e-38
-0.035705045 -0.0024430128 0.64200002 2.3124032e-38
-0.075188704 0.0023047042 0.64400005 2.2296065e-38
-0.073399052 0.0017102881 0.64400005 2.2479739e-38
-0.070416294 0.0017102882 0.64400005 2.2755609e-38
-0.067433529 0.0017102882 0.64400005 2.2572294e-38
-0.064450771 0.0017102881 0.64400005 2.2663776e-38
-0.061468009 0.0017102882 0.64400005 2.2756336e-38
-0.058425937 0.0017085178 0.64333338 2.2756695e-38
-0.05533012 0.0017049767 0.64200002 2.3032557e-38
-0.052356619 0.0017049768 0.64200002 2.294073e-38
-0.049383126 0.0017049767 0.64200002 2.3032201e-38
-0.046409633 0.0017049768 0.64200002 2.3124037e-38
-0.043436132 0.0017049767 0.64200002 2.303256e-38
-0.041057341 0.0017049767 0.64200002 2.2941093e-38
-0.078768015 0.0058711995 0.64400005 2.2479392e-38
-0.076211371 0.005022034 0.64400005 2.2387905e-38
-0.073399045 0.0046823677 0.64400005 2.2571576e-38
-0.070416287 0.0046823677 0.64400005 2.2663772e-38
-0.067433529 0.0046823677 0.64400005 2.2572289e-38
-0.06442894 0.004680342 0.64377785 2.2572299e-38
-0.061340127 0.0046720579 0.64266664 2.2756696e-38
-0.058425937 0.0046775211 0.64333344 2.2756695e-38
-0.05535854 0.0046702498 0.64233333 2.3031841e-38
-0.052411404 0.0046730838 0.6426667 2.2848533e-38
-0.049485687 0.0046787509 0.64333338 2.2756693e-38
-0.04649036 0.004677136 0.64311111 2.294036e-38
-0.043436129 0.004667826 0.64200002 2.2940361e-38
-0.040462639 0.0042727794 0.64200002 2.3032563e-38
-0.03808384 0.0034826864 0.64200002 2.3032196e-38
-0.090699054 0.0082488628 0.64400005 2.2571943e-38
-0.085330084 0.0082488628 0.64400005 2.2387545e-38
-0.082108714 0.0077733309 0.64400005 2.2387549e-38
-0.076381803 0.0076544471 0.64400005 2.2387552e-38
-0.073399052 0.0076544471 0.64400005 2.2480099e-38
-0.070416279 0.0076544471 0.64400005 2.2480814e-38
-0.067433529 0.0076544471 0.64400005 2.2664484e-38
-0.064351305 0.0076422542 0.64300001 2.2847807e-38
-0.061277114 0.007630676 0.64200002 2.3031837e-38
-0.058334503 0.0076343305 0.64233333 2.2848525e-38
-0.055416305 0.007643484 0.64300001 2.2847806e-38
-0.05238381 0.0076343305 0.64233333 2.2848519e-38
-0.049536973 0.0076544471 0.64400005 2.2664138e-38
-0.046554208 0.0076544471 0.64400005 2.275634e-38
-0.043470427 0.0076370798 0.64250004 2.2848526e-38
-0.041057341 0.007630676 0.64200002 2.2757044e-38
-0.08751744 0.009833972 0.64400005 2.2479383e-38
-0.085197896 0.010608796 0.64300001 2.2479742e-38
-0.082261674 0.010614705 0.64333338 2.2479743e-38
-0.079165719 0.011419081 0.64400005 2.2479738e-38
-0.075984105 0.01023025 0.64400005 2.2663407e-38
-0.073399045 0.010626527 0.64400005 2.2571576e-38
-0.070416279 0.010626527 0.64400005 2.2480099e-38
-0.067224108 0.010593526 0.64200002 2.2755606e-38
-0.064250611 0.010593526 0.64200002 2.2755609e-38
-0.061277118 0.010593526 0.64200002 2.2755965e-38
-0.058383927 0.010606962 0.6428889 2.2664498e-38
-0.055445034 0.010614295 0.64333338 2.2755969e-38
-0.052482661 0.010619192 0.64355564 2.2756329e-38
-0.049536973 0.010626527 0.64400005 2.2664496e-38
-0.046554208 0.010626527 0.64400005 2.2848171e-38
-0.04352634 0.010614295 0.64333338 2.2848167e-38
-0.04050589 0.010604526 0.6426667 2.275633e-38
-0.037489142 0.011186097 0.64200002 2.2755967e-38
-0.034515645 0.010593526 0.64200002 2.2848155e-38
-0.031542152 0.010593526 0.64200002 2.2755965e-38
-0.028568653 0.010593526 0.64200002 2.2756325e-38
-0.026189856 0.010000955 0.64200002 2.2939994e-38
-0.075188704 0.013598606 0.64400005 2.2664125e-38
-0.073399052 0.013598606 0.64400005 2.2571936e-38
-0.070416287 0.013598606 0.64400005 2.2663768e-38
-0.067224108 0.013556375 0.64200002 2.2755244e-38
-0.064250611 0.013556375 0.64200002 2.275561e-38
-0.061277114 0.013556375 0.64200002 2.2571938e-38
-0.058303613 0.013556376 0.64200002 2.2572298e-38
-0.055372749 0.013567395 0.64249998 2.2664488e-38
-0.052519735 0.013598606 0.64400005 2.2663768e-38
-0.049536973 0.013598607 0.64400005 2.275633e-38
-0.046506017 0.013585146 0.64333338 2.2848527e-38
-0.043436132 0.013556374 0.64200002 2.275669e-38
-0.040484268 0.013563722 0.64233333 2.2756325e-38
-0.037489142 0.013556374 0.64200002 2.2664484e-38
-0.034515642 0.013437862 0.64200002 2.2664128e-38
-0.031542152 0.012963805 0.64200002 2.2663773e-38
-0.028568653 0.012963805 0.64200002 2.2663759e-38
-0.075188704 0.016570687 0.64400005 2.2755966e-38
-0.073399045 0.016570687 0.64400005 2.2663779e-38
-0.070416287 0.016570687 0.64400005 2.2755972e-38
-0.067224108 0.016519226 0.64200002 2.2939638e-38
-0.064250611 0.016519226 0.64200002 2.2939641e-38
-0.061277118 0.016519226 0.64200002 2.2664131e-38
-0.05836416 0.016537609 0.64266676 2.2480469e-38
-0.055386961 0.016536994 0.64266664 2.2571938e-38
-0.052519731 0.016570687 0.64400005 2.2571928e-38
-0.049536973 0.016570685 0.64400005 2.2480102e-38
-0.046506424 0.016554352 0.64333344 2.2572298e-38
-0.043458376 0.016528418 0.64233333 2.2572664e-38
-0.040462639 0.016519226 0.64200002 2.2663773e-38
-0.037489142 0.016519224 0.64200002 2.2296423e-38
-0.034515645 0.016519224 0.64200002 2.2480098e-38
-0.031542148 0.016519224 0.64200002 2.2479745e-38
-0.029163353 0.01681551 0.64200002 2.2571946e-38
-0.075188704 0.01894835 0.64400005 2.294e-38
-0.073399052 0.019542767 0.64400005 2.2388986e-38
-0.070306331 0.019512111 0.64300001 2.2664126e-38
-0.067276925 0.019497707 0.64250004 2.2847443e-38
-0.064284585 0.019492496 0.64233333 2.2756335e-38
-0.061419822 0.019528056 0.64350003 2.266377e-38
-0.058485243 0.019542767 0.64400005 2.2572301e-38
-0.055502489 0.019542767 0.64400005 2.2663413e-38
-0.052493166 0.019532343 0.64366668 2.2479376e-38
-0.049498975 0.019527132 0.64350003 2.220388e-38
-0.046409633 0.019482072 0.64200002 2.2296435e-38
-0.043436132 0.019482072 0.64200002 2.2296434e-38
-0.040462639 0.019482074 0.64200002 2.266342e-38
-0.037489142 0.019482072 0.64200002 2.2479741e-38
-0.034515645 0.019363558 0.64200002 2.2571936e-38
-0.031343918 0.019284548 0.64200002 2.27556e-38
-0.029758051 0.019482072 0.64200002 2.2847441e-38
-0.072972871 0.021654829 0.64200002 2.1561042e-38
-0.070058405 0.022115771 0.64228576 2.2481896e-38
-0.06751059 0.022263095 0.64360005 2.3032553e-38
-0.06436304 0.022484181 0.64311111 2.2848167e-38
-0.061468009 0.022514848 0.64400005 2.2755607e-38
-0.058465473 0.022507079 0.64377785 2.2663413e-38
-0.055473458 0.022502577 0.64366668 2.2663412e-38
-0.05243035 0.022475999 0.6428889 2.2571216e-38
-0.049435031 0.022467615 0.64266664 2.2387909e-38
-0.046409629 0.022444924 0.64200002 2.2571942e-38
-0.043436129 0.022444921 0.64200002 2.2571933e-38
-0.041176282 0.022207895 0.64200002 2.2663403e-38
-0.037687376 0.021654829 0.64200002 2.2296427e-38
-0.064384669 0.025459925 0.64333338 2.2665225e-38
-0.06137256 0.025446426 0.64300001 2.2572306e-38
-0.058394432 0.025446428 0.64300001 2.2480099e-38
-0.055416305 0.025446428 0.64300001 2.2663409e-38
-0.052384432 0.025420658 0.64233333 2.2755244e-38
-0.04958136 0.025210252 0.64200002 2.2663777e-38
-0.046409629 0.024815204 0.64200002 2.2572303e-38
-0.043436132 0.024815204 0.64200002 2.2480462e-38
-0.041652039 0.025407773 0.64200002 2.2663766e-38
-0.061277114 0.027185483 0.64200002 2.2389709e-38
-0.057411566 0.028074339 0.64200002 2.2388623e-38
-0.055330124 0.028370621 0.64200002 2.2571935e-38
-0.052356623 0.028370623 0.64200002 2.2571931e-38
-0.049383126 0.027185483 0.64200002 2.2571941e-38
-0.046558306 0.028222481 0.64200002 2.2664131e-38
-0.043138783 0.028074337 0.64200002 2.2664136e-38
-0.041652039 0.029555762 0.64200002 2.2848167e-38
-0.057114221 0.030740902 0.64200002 2.2298244e-38
-0.055131886 0.031135948 0.64200002 2.2664502e-38
-0.052356619 0.031333473 0.64200002 2.2664492e-38
-0.046647511 0.031451985 0.64200002 2.284816e-38
-0.043237898 0.031530995 0.64200002 2.2756329e-38
-0.041057341 0.031333473 0.64200002 2.2664491e-38
-0.052118748 0.033585239 0.64200002 2.2574461e-38
-0.046409629 0.034296319 0.64200002 2.3032191e-38
-0.043436136 0.034296323 0.64200002 2.2848166e-38
-0.041057341 0.034296319 0.64200002 2.2939997e-38
-0.046409633 0.036666602 0.64200002 2.2665934e-38
-0.043436132 0.036666602 0.64200002 2.2940001e-38
-0.040751681 0.037424855 0.64279997 2.2848167e-38
-0.040462639 0.039036881 0.64200002 2.2848893e-38
-0.099358395 -0.043004047 0.64600003 2.0359615e-38
-0.097676218 -0.043650698 0.64675003 1.7594887e-38
-0.094717555 -0.043667804 0.64700001 1.4557898e-38
-0.092320226 -0.043070614 0.64700001 1.4373162e-38
-0.10008559 -0.040671702 0.64683336 2.1650704e-38
-0.097714208 -0.040681873 0.64700001 2.1373763e-38
-0.094717555 -0.040681876 0.64700001 1.9713544e-38
-0.091626696 -0.040640268 0.6463334 1.7041726e-38
-0.088758089 -0.040278282 0.64599997 1.4834113e-38
-0.10310818 -0.037098765 0.64700001 2.2111678e-38
-0.10071086 -0.037695948 0.64700001 2.2111327e-38
-0.097714208 -0.037695952 0.64700001 2.1927294e-38
-0.094644345 -0.037667282 0.64649999 2.2110595e-38
-0.091579139 -0.037637688 0.64600003 2.1466658e-38
-0.088587105 -0.037637688 0.64599997 1.916182e-38
-0.085706227 -0.037400093 0.64533335 1.6397451e-38
-0.10370751 -0.035307214 0.64700001 2.2019837e-38
-0.10071086 -0.034710027 0.64700001 2.2111322e-38
-0.097689189 -0.034700777 0.64683336 2.2019491e-38
-0.094571158 -0.034656383 0.64599997 2.2019487e-38
-0.091579139 -0.034656379 0.64599997 2.2019483e-38
-0.088602349 -0.034662545 0.64611113 2.1926926e-38
-0.085595094 -0.034656379 0.64599997 2.0912418e-38
-0.082835145 -0.034440033 0.64514291 1.8700849e-38
-0.10550551 -0.032321285 0.64700001 2.2111317e-38
-0.10071086 -0.031724103 0.64700001 2.2019127e-38
-0.097639158 -0.031699583 0.64649999 2.2294995e-38
-0.094571151 -0.031675071 0.64599997 2.2111318e-38
-0.091579132 -0.031675071 0.64600003 2.2111684e-38
-0.088587105 -0.031675071 0.64599997 2.211168e-38
-0.085595086 -0.031675071 0.64600003 2.2112039e-38
-0.082518436 -0.031642381 0.64533335 2.211131e-38
-0.10650439 -0.028340055 0.64700001 2.2110957e-38
-0.10370751 -0.027543807 0.64700001 2.2203157e-38
-0.10071086 -0.028738178 0.64700001 2.2202792e-38
-0.097639166 -0.02871597 0.64650005 2.2110955e-38
-0.094571166 -0.028693758 0.64599997 2.2202799e-38
-0.091484934 -0.028664457 0.64533335 2.2294993e-38
-0.088540994 -0.028679363 0.64566666 2.2387541e-38
-0.085595094 -0.02869376 0.64599997 2.2387905e-38
-0.082532652 -0.028668877 0.64544445 2.2295711e-38
-0.079487801 -0.028649343 0.64500004 2.2387919e-38
-0.077396631 -0.028351672 0.64500004 2.2295362e-38
-0.11149882 -0.025155067 0.64700001 2.2019488e-38
-0.10670418 -0.025752254 0.64700001 2.2019483e-38
-0.10370751 -0.025752252 0.64700001 2.2019846e-38
-0.10071086 -0.025752252 0.64700001 2.2111324e-38
-0.097676687 -0.025742533 0.64675003 2.2203157e-38
-0.094546765 -0.025705971 0.64583331 2.2203157e-38
-0.091473043 -0.025682829 0.64525008 2.2386833e-38
-0.088472523 -0.025679434 0.6451667 2.2387549e-38
-0.08556173 -0.02570273 0.64575005 2.2479385e-38
-0.082603067 -0.025712451 0.64599997 2.2295707e-38
-0.079518385 -0.025682366 0.64525002 2.2295714e-38
-0.077128008 -0.025682366 0.64525002 2.2295712e-38
-0.074110501 -0.025077308 0.64500004 2.2387897e-38
-0.071720585 -0.025077308 0.64500004 2.229571e-38
-0.11221801 -0.022288579 0.64700001 2.2018763e-38
-0.10970082 -0.022766327 0.64700001 2.1835461e-38
-0.10670418 -0.022766329 0.64700001 2.201913e-38
-0.10370751 -0.022766329 0.64700001 2.201949e-38
-0.10071086 -0.022766327 0.64700001 2.2019497e-38
-0.097689189 -0.022760158 0.64683336 2.2203166e-38
-0.094555311 -0.022726616 0.64588892 2.2295354e-38
-0.091508411 -0.022712931 0.6455 2.2387191e-38
-0.088495284 -0.022707477 0.64533335 2.2387916e-38
-0.085595094 -0.02273114 0.64599997 2.2387912e-38
-0.082603067 -0.02273114 0.64599997 2.2479025e-38
-0.079611041 -0.02273114 0.64599997 2.2387551e-38
-0.076893456 -0.02288113 0.6454286 2.2296078e-38
-0.074110501 -0.02388663 0.64500004 2.2296063e-38
-0.1150948 -0.019183218 0.64700001 2.1835445e-38
-0.11269748 -0.019780405 0.64700001 2.1927282e-38
-0.10970083 -0.019780403 0.64700001 2.1927286e-38
-0.10670418 -0.019780403 0.64700001 2.2110955e-38
-0.10370751 -0.019780403 0.64700001 2.2202435e-38
-0.10071086 -0.019780403 0.64700001 2.2110958e-38
-0.097714201 -0.019780403 0.64700001 2.2111327e-38
-0.094620578 -0.01976002 0.6463334 2.2019844e-38
-0.091579139 -0.019749831 0.64600003 2.220351e-38
-0.088587113 -0.01974983 0.64599997 2.2387548e-38
-0.085561737 -0.019742418 0.64575005 2.2387195e-38
-0.082582064 -0.019744888 0.64583331 2.2479023e-38
-0.079580002 -0.019742418 0.64575005 2.2571219e-38
-0.077128008 -0.019727131 0.64525002 2.2480113e-38
-0.11749212 -0.016197294 0.64700001 2.192765e-38
-0.11569414 -0.016794479 0.64700001 2.1835446e-38
-0.11269748 -0.016794479 0.64700001 2.1926924e-38
-0.10970082 -0.016794479 0.64700001 2.2110958e-38
-0.10670418 -0.01679448 0.64700001 2.2203152e-38
-0.10370751 -0.016794479 0.64700001 2.2294992e-38
-0.10071087 -0.016794479 0.64700001 2.2202788e-38
-0.097689189 -0.016789844 0.64683336 2.2202799e-38
-0.094685227 -0.0167883 0.64677775 2.2203157e-38
-0.091602914 -0.01677254 0.64616662 2.2203506e-38
-0.088587105 -0.016768521 0.64599997 2.2387898e-38
-0.085484825 -0.016746582 0.6451667 2.2295711e-38
-0.082475193 -0.016742563 0.64500004 2.2387905e-38
-0.0796073 -0.016980698 0.64500004 2.2480105e-38
-0.077297054 -0.017139455 0.64500004 2.2572287e-38
-0.11839113 -0.012912776 0.64700001 2.2019135e-38
-0.11569414 -0.013211369 0.64700001 2.2019844e-38
-0.11269748 -0.013211368 0.64700001 2.2111676e-38
-0.10970083 -0.013808553 0.64700001 2.2203514e-38
-0.10670418 -0.013808553 0.64700001 2.2203513e-38
-0.10382738 -0.013450243 0.64700001 2.2386828e-38
-0.10071086 -0.013211368 0.64700001 2.2203155e-38
-0.097834066 -0.013450243 0.64700001 2.2294631e-38
-0.094567724 -0.013360664 0.64700001 2.2294638e-38
-0.091720887 -0.01321137 0.64700001 2.2111683e-38
-0.088690192 -0.013355099 0.64674997 2.229571e-38
-0.085595086 -0.01378721 0.64600003 2.2295708e-38
-0.082475193 -0.013765869 0.64500004 2.2204233e-38
-0.11569414 -0.010225443 0.64700001 2.2294991e-38
-0.11269748 -0.010225443 0.64700001 2.2203515e-38
-0.1096162 -0.01081365 0.64650005 2.2203517e-38
-0.10661255 -0.010812927 0.64644444 2.2203521e-38
-0.10352391 -0.010576694 0.64660007 2.2294993e-38
-0.10065959 -0.010220175 0.64666671 2.2386469e-38
-0.097504281 -0.010573718 0.64639997 2.2294636e-38
-0.094825789 -0.010474475 0.64657146 2.2386474e-38
-0.091720894 -0.010225443 0.64700001 2.2295349e-38
-0.088704653 -0.010478727 0.6468572 2.2295345e-38
-0.085639566 -0.01081117 0.6463334 2.2203511e-38
-0.082504019 -0.010792685 0.64522225 2.229571e-38
-0.080085285 -0.010193834 0.64500004 2.2571217e-38
-0.11569414 -0.0084338887 0.64700001 2.2387184e-38
-0.1122681 -0.0081259813 0.64625001 2.2295355e-38
-0.10953126 -0.0072283293 0.64599997 2.2295359e-38
-0.10661214 -0.0072335079 0.64644444 2.2387198e-38
-0.10370751 -0.0072395192 0.64700001 2.2294992e-38
-0.10065959 -0.0072357897 0.64666671 2.2386828e-38
-0.097613834 -0.007231751 0.6463334 2.2386826e-38
-0.09458743 -0.0072295722 0.64611113 2.2294989e-38
-0.091579139 -0.0072283293 0.64599997 2.2203508e-38
-0.088632613 -0.007232469 0.64633334 2.2387184e-38
-0.085595094 -0.0072283293 0.64599997 2.2295358e-38
-0.082574859 -0.0072254324 0.64577776 2.2295361e-38
-0.079528876 -0.0072202538 0.64533335 2.2387548e-38
-0.076526977 -0.0072192159 0.64522225 2.2479382e-38
-0.072915547 -0.0060264622 0.64500004 2.2479037e-38
-0.07132227 -0.0064233546 0.64500004 2.257123e-38
-0.10901718 -0.0042498456 0.64649999 2.2295355e-38
-0.10670417 -0.0042535937 0.64700001 2.2203159e-38
-0.10370751 -0.0042535942 0.64700001 2.2386823e-38
-0.10065959 -0.0042514028 0.64666671 2.2478662e-38
-0.097563177 -0.0042470195 0.64600003 2.2386818e-38
-0.094498269 -0.0042438866 0.6455 2.2295356e-38
-0.09143737 -0.0042404458 0.64500004 2.2295354e-38
-0.088472523 -0.0042416952 0.6451667 2.2295355e-38
-0.085462585 -0.0042404458 0.64500004 2.2387191e-38
-0.082603067 -0.0042470195 0.64599997 2.2386836e-38
-0.079611048 -0.0042470195 0.64600003 2.2387551e-38
-0.076580107 -0.0042448286 0.64566666 2.2295362e-38
-0.073712178 -0.004438892 0.64500004 2.2387191e-38
-0.071720585 -0.0042404458 0.64500004 2.2387911e-38
-0.10610484 -0.0024620392 0.64700001 2.2294995e-38
-0.10370751 -0.0024620392 0.64700001 2.2478657e-38
-0.10050335 -0.0014162309 0.64662498 2.2387185e-38
-0.097563177 -0.0012657101 0.64599997 2.2295354e-38
-0.094457507 -0.0012641862 0.64522225 2.2295718e-38
-0.09143737 -0.0012637508 0.64500004 2.2203877e-38
-0.088449985 -0.0012637508 0.64500004 2.2203877e-38
-0.085462593 -0.0012637508 0.64500004 2.2295707e-38
-0.082603067 -0.00126571 0.64599997 2.2294992e-38
-0.079611041 -0.0012657101 0.64599997 2.2203513e-38
-0.076553538 -0.0012650318 0.64544445 2.2295347e-38
-0.073513024 -0.0012637508 0.64500004 2.2387893e-38
-0.071720585 -0.0012637508 0.64500004 2.2204592e-38
-0.097488135 0.0011184713 0.64550006 2.2663063e-38
-0.094448857 0.0017135404 0.6451667 2.2479396e-38
-0.091508254 0.0017147333 0.64550006 2.2387551e-38
-0.088518552 0.0017147331 0.6455 2.2295712e-38
-0.085561737 0.0017151664 0.64575005 2.2387897e-38
-0.082603075 0.0017155996 0.64599997 2.2203513e-38
-0.079611048 0.0017155997 0.64600003 2.2295711e-38
-0.076739408 0.001593876 0.64500004 2.2295707e-38
-0.093724489 0.0039000849 0.64566666 2.2571586e-38
-0.091602616 0.004698121 0.64616668 2.247939e-38
-0.088587113 0.0046969098 0.64599997 2.2387184e-38
-0.08550676 0.0046914471 0.64533335 2.2295707e-38
-0.082517818 0.0046914462 0.64533335 2.2203882e-38
-0.079632133 0.0044525876 0.64520001 2.2387555e-38
-0.077097893 0.0034989605 0.64500004 2.2388258e-38
-0.090980731 0.0070819571 0.64600003 2.2571586e-38
-0.088473149 0.0076681599 0.6451667 2.2479383e-38
-0.085462585 0.007070994 0.64500004 2.2295708e-38
-0.083670154 0.007070994 0.64500004 2.229571e-38
-0.079487801 0.0076663331 0.64500004 2.2479389e-38
-0.079686962 0.0098492429 0.64500004 2.2479385e-38
-0.077297054 0.011436814 0.64500004 2.2663049e-38
-0.078890324 0.013024384 0.64500004 2.248009e-38
-0.077097893 0.013619723 0.64500004 2.2571928e-38
-0.076799154 0.016596418 0.64500004 2.2664485e-38
-0.066940762 0.023740485 0.64500004 2.3033991e-38
-0.066940762 0.025526501 0.64500004 2.1562126e-38
-0.10566857 -0.033567458 0.648 2.2019124e-38
-0.10386781 -0.033567458 0.648 2.201947e-38
-0.10566857 -0.031175025 0.648 2.2111317e-38
-0.1038678 -0.031773135 0.648 2.1927639e-38
-0.10886995 -0.028383857 0.648 2.1927282e-38
-0.10566857 -0.029978812 0.648 2.2111317e-38
-0.10386781 -0.029380703 0.648 2.2111318e-38
-0.10987038 -0.025792055 0.648 2.2019127e-38
-0.11887424 -0.016222328 0.648 2.1927653e-38
-0.12007475 -0.013231788 0.648 2.1926937e-38
-0.11847407 -0.013630527 0.648 2.2019494e-38
-0.1180739 -0.010440618 0.648 2.2386112e-38
-0.10326755 -0.00067152071 0.648 2.2479016e-38
