# .PCD v0.7 - Point Cloud Data file format
VERSION 0.7
FIELDS x y z rgb
SIZE 4 4 4 4
TYPE F F F F
COUNT 1 1 1 1
WIDTH 196
HEIGHT 1
VIEWPOINT 0 0 0 1 0 0 0
POINTS 196
DATA ascii
0.13992858 0.065300003 0.65300006 6.7198119e-39
0.13744096 0.067787625 0.65300006 6.9963721e-39
0.13992858 0.067165717 0.65300006 6.4450201e-39
0.13992858 0.069031432 0.65300006 6.4453858e-39
0.13994667 0.059352383 0.65600002 6.9052863e-39
0.14244573 0.059352383 0.65600002 6.3568055e-39
0.14432001 0.059352383 0.65600002 5.9909083e-39
0.1361981 0.061851434 0.65600002 7.4548364e-39
0.1392508 0.061195243 0.65566665 7.0878671e-39
0.14222857 0.06113334 0.65500003 6.4479305e-39
0.14553286 0.06121096 0.65583342 5.8987168e-39
0.13369906 0.065600008 0.65600002 7.4551867e-39
0.13668339 0.06428466 0.6553334 7.3626351e-39
0.13960859 0.064002857 0.65500003 6.9953128e-39
0.14222859 0.064252384 0.65500003 6.2635323e-39
0.1454962 0.064317785 0.65566671 5.8068799e-39
0.13432382 0.067474291 0.65600002 7.3633526e-39
0.13648915 0.067308202 0.65560001 7.1793271e-39
0.13910954 0.067371428 0.65500003 6.8119935e-39
0.14222857 0.067371428 0.65500003 5.8039905e-39
0.14531963 0.067349337 0.65600002 5.2547964e-39
0.13057524 0.069973335 0.65600002 7.4555594e-39
0.13432382 0.069973335 0.65600002 7.1793327e-39
0.13656214 0.070388809 0.65550005 6.9952987e-39
0.13942365 0.07096111 0.65549999 6.4446557e-39
0.14237334 0.070562862 0.65566665 6.0805788e-39
0.14473651 0.069765083 0.65600002 5.439189e-39
0.13682286 0.073721908 0.65600002 6.6272449e-39
0.13932191 0.073721908 0.65600008 6.3535503e-39
0.14223747 0.073513657 0.65600002 6.3582418e-39
0.14432001 0.073097147 0.65600002 6.176024e-39
0.13432382 0.076220959 0.65600002 6.5354094e-39
0.13682286 0.075596198 0.65600002 6.3521098e-39
0.13932191 0.075908579 0.65600002 6.5397506e-39
0.13640572 0.056940004 0.65700001 7.2715353e-39
0.13828287 0.056940004 0.65700001 6.9967561e-39
0.12815334 0.05859334 0.65800005 8.1034386e-39
0.13034666 0.058280002 0.65800005 7.8246909e-39
0.13341196 0.058250055 0.65766668 7.5481068e-39
0.13640572 0.058817148 0.65700001 7.2715297e-39
0.1393265 0.058208764 0.65720004 6.9056409e-39
0.14241715 0.057492577 0.65760005 6.266412e-39
0.14542362 0.057993531 0.65760005 5.899077e-39
0.14833537 0.058425356 0.657875 5.8990784e-39
0.1512908 0.059055243 0.65733337 5.7157619e-39
0.12596001 0.06141334 0.65800005 7.8225651e-39
0.12784001 0.061413337 0.65800005 7.6395892e-39
0.13024715 0.06136667 0.65750003 7.6402968e-39
0.13327715 0.061320003 0.65700001 7.6399409e-39
0.13640572 0.060694288 0.65700001 7.4551965e-39
0.14909026 0.061390243 0.65775007 5.8990728e-39
0.15159547 0.061390243 0.65775001 5.716122e-39
0.12564667 0.064546674 0.65800005 7.7317778e-39
0.12780747 0.064530008 0.6578334 7.6392178e-39
0.13014857 0.064448573 0.65700001 7.6395737e-39
0.13309838 0.064091019 0.65700001 7.5477439e-39
0.14910907 0.064530633 0.6578334 5.7157647e-39
0.15165335 0.064546674 0.65800005 5.7161234e-39
0.15330002 0.064448573 0.65700001 5.8083275e-39
0.12596001 0.067680001 0.65800005 7.7321337e-39
0.12774238 0.067628577 0.65750003 7.6399409e-39
0.13014857 0.067577146 0.65700001 7.5477481e-39
0.13265143 0.067577146 0.65700001 7.5477382e-39
0.14872591 0.06778457 0.65780008 5.716122e-39
0.15165335 0.06705334 0.65800005 5.8093897e-39
0.15353334 0.067680001 0.65800005 5.9934432e-39
0.12596001 0.070186675 0.65800005 7.5491802e-39
0.12774238 0.070133343 0.65750003 7.456637e-39
0.12983572 0.071018577 0.65700001 7.4555636e-39
0.13291959 0.070884489 0.65700001 7.2715241e-39
0.1453743 0.071540006 0.65700001 5.9916468e-39
0.14799033 0.070341758 0.65750003 5.9005245e-39
0.12815334 0.073006667 0.65800005 7.2718997e-39
0.13029692 0.073918812 0.65775007 7.0875028e-39
0.13327716 0.073834293 0.65700001 6.9952987e-39
0.13578001 0.073834293 0.65700001 6.8109103e-39
0.14328858 0.074460007 0.65700001 6.3600453e-39
0.1453743 0.074042864 0.65700001 6.1763841e-39
0.14715478 0.073890001 0.65750003 6.2689357e-39
0.13034667 0.075826675 0.65800005 6.9956659e-39
0.13275191 0.076395243 0.65750003 6.7197951e-39
0.13619715 0.076545723 0.65700001 6.4439425e-39
0.13953429 0.076962866 0.65700001 6.5411926e-39
0.14266287 0.076337151 0.65700001 6.5440736e-39
0.14516573 0.076337151 0.65700001 6.0856178e-39
0.14837016 0.076375879 0.65733337 6.0852619e-39
0.13410953 0.079264186 0.65740001 6.3528216e-39
0.13654412 0.079546988 0.65766674 6.4479137e-39
0.13923715 0.07932204 0.65728575 6.4515165e-39
0.14218096 0.079338104 0.65766668 6.1774533e-39
0.14517295 0.079288386 0.65760005 6.0852577e-39
0.14783739 0.078930244 0.65775001 6.0852647e-39
0.13113907 0.049177147 0.66200006 7.0889531e-39
0.13366097 0.049177147 0.66200006 6.7227056e-39
0.13597271 0.049387306 0.66200006 6.448641e-39
0.13807429 0.049177147 0.66200006 6.0823836e-39
0.12546477 0.051068574 0.66200006 7.5481124e-39
0.1273562 0.052644767 0.66200006 7.5481096e-39
0.13064131 0.052477028 0.66187513 7.4566314e-39
0.13352636 0.05227619 0.66133338 7.2726031e-39
0.13644907 0.052406672 0.66100007 6.9056465e-39
0.1396351 0.052126262 0.66171443 6.3568069e-39
0.14238048 0.053550005 0.66150004 6.0827438e-39
0.14573382 0.053195238 0.66100001 5.716122e-39
0.14850762 0.053143177 0.66166669 5.7150501e-39
0.15068382 0.05359048 0.66200006 5.8994357e-39
0.12546477 0.056112386 0.66200006 8.469703e-39
0.12756635 0.055692066 0.66200006 8.1016421e-39
0.13031079 0.055397779 0.66100001 7.6410143e-39
0.1333074 0.055335 0.66025007 7.5484627e-39
0.13640001 0.055314288 0.66000003 7.1797054e-39
0.13954288 0.055314288 0.66000003 6.7219839e-39
0.14216477 0.055355716 0.66050005 6.2653358e-39
0.1453827 0.055383652 0.66083336 5.8072401e-39
0.14873643 0.055461194 0.66175008 5.6235705e-39
0.15068382 0.055481911 0.66200006 5.7161234e-39
0.12294286 0.059895243 0.66200006 7.9168977e-39
0.12484705 0.058832575 0.66140002 9.11615e-39
0.12696096 0.058257718 0.66060007 8.749901e-39
0.15085715 0.057200003 0.66000003 5.7157689e-39
0.12252256 0.061996829 0.66200006 7.5484739e-39
0.12455096 0.06164667 0.66050005 7.8232658e-39
0.12185981 0.064395815 0.66160005 7.6399381e-39
0.12431017 0.06393683 0.6603334 7.6395808e-39
0.1219626 0.067237146 0.66157144 7.8239664e-39
0.12455096 0.067308098 0.66050005 7.8236105e-39
0.1521143 0.068514287 0.66000003 5.9012322e-39
0.12285001 0.070560485 0.66150004 7.6410157e-39
0.12455095 0.070453331 0.66050005 7.5495375e-39
0.15182933 0.070568763 0.66040003 5.9930761e-39
0.15486287 0.069877148 0.66100001 6.3607768e-39
0.12478691 0.073107861 0.66175008 7.3647945e-39
0.12688401 0.073816583 0.66020006 7.1800543e-39
0.14897144 0.073542863 0.66000003 6.1763813e-39
0.15144359 0.073756427 0.66049999 6.0852675e-39
0.12504445 0.075446986 0.66200006 7.1796928e-39
0.12776016 0.076783016 0.66083342 6.9953086e-39
0.13074286 0.077314287 0.66000003 6.8116376e-39
0.12798667 0.07880953 0.66200006 6.7197979e-39
0.13031144 0.079320006 0.66100001 6.6276022e-39
0.13262857 0.0792 0.66000003 6.6275994e-39
0.12767144 0.082277149 0.66200006 6.6276064e-39
0.13048647 0.082578734 0.66188896 5.9851251e-39
0.13355985 0.08253096 0.66150004 5.6181531e-39
0.13643715 0.083021909 0.66140002 5.8065072e-39
0.1397543 0.083098099 0.66100001 6.3607712e-39
0.14279316 0.082196347 0.66050005 6.0856234e-39
0.1458443 0.082530953 0.66150004 6.1774589e-39
0.1477143 0.081085719 0.66000003 6.0852661e-39
0.13176954 0.085114293 0.66200006 4.974227e-39
0.13366097 0.085114293 0.66200006 4.8827642e-39
0.13555239 0.085114293 0.66200006 5.4377289e-39
0.12944287 0.049882859 0.66300005 7.3644232e-39
0.13702001 0.048620004 0.66300005 6.1742205e-39
0.14017716 0.049882859 0.66300005 5.8987154e-39
0.14376667 0.050033338 0.66500002 5.899077e-39
0.14459716 0.049882859 0.66300005 5.8068855e-39
0.12511668 0.053080481 0.66350007 7.8243321e-39
0.12754858 0.051777147 0.66300005 7.4559126e-39
0.12944287 0.051145718 0.66300005 7.4555482e-39
0.14270288 0.051777147 0.66300005 5.8990742e-39
0.14522859 0.051777147 0.66300005 5.8075974e-39
0.12223334 0.056366671 0.66500002 7.9165278e-39
0.1245781 0.055649526 0.66400003 8.1009162e-39
0.12691715 0.054934289 0.66300005 8.0090877e-39
0.11934001 0.05998572 0.66300005 7.7332183e-39
0.12164191 0.059081912 0.66350007 7.9168921e-39
0.12354953 0.057880957 0.66300005 8.2856662e-39
0.11903778 0.062153336 0.66366673 7.640301e-39
0.12102383 0.061669528 0.66300005 7.6410255e-39
0.11847144 0.064356387 0.66380006 7.7317722e-39
0.12060287 0.063774288 0.66300005 7.823972e-39
0.11870858 0.066931434 0.66300005 7.8236133e-39
0.12060287 0.068194292 0.66300005 7.9150886e-39
0.11906667 0.06903334 0.66500002 7.640308e-39
0.1214162 0.070826672 0.66400003 7.640301e-39
0.12204953 0.07335715 0.66400003 7.4555566e-39
0.12312858 0.073245719 0.66300005 7.5477495e-39
0.11946001 0.076478414 0.66366673 7.1793327e-39
0.12153874 0.076595567 0.66466665 7.1793313e-39
0.12403239 0.076862864 0.66333342 7.0874972e-39
0.1216 0.079166673 0.66500002 6.9949484e-39
0.12464032 0.079720013 0.66433334 6.8116348e-39
0.12733811 0.079770483 0.66300005 6.8112676e-39
0.12535842 0.081957147 0.66366673 6.6279652e-39
0.12691715 0.08271715 0.66300005 6.6283183e-39
0.13828287 0.083980009 0.66300005 5.9927005e-39
0.12260096 0.055265717 0.66700006 7.8246839e-39
0.12387144 0.055265717 0.66700006 8.0087178e-39
0.11924572 0.071040004 0.66600001 7.6406696e-39
0.11924572 0.073577151 0.66600001 7.4555566e-39
0.12114858 0.073577151 0.66600001 7.4551979e-39
0.12260096 0.080675244 0.66700006 6.9034815e-39
0.12260096 0.081945717 0.66700006 6.7201692e-39
0.12387144 0.081945717 0.66700006 6.7201664e-39
0.12424286 0.054157145 0.66900003 7.9161662e-39
